-0.00319434  0.00401213 0.000622358
-0.000513906  0.000643488  0.000166787
-0.00245053   0.0028906 0.000691813
-0.00708412   0.0107256  0.00283652
-0.0039626 0.00641165 0.00149926
-0.00757325   0.0114719  0.00247167
-0.000202834  0.000328192  0.000108811
-0.00311227  0.00470914  0.00148074
-0.0062685 0.00834933 0.00232449
-0.00134245  0.00190373 0.000564896
-0.000524619  0.000795219  9.46186e-05
-0.00273356  0.00414236 0.000690693
-0.00072806  0.00117801 0.000163911
-0.000198339  0.000265097  3.33322e-05
-0.00410262  0.00583631 0.000572116
-0.00484263  0.00647634 0.000493783
-0.000305321  0.000494013  2.28178e-05
-0.00178116  0.00270068 6.58522e-05
-0.00469354  0.00711596 0.000508994
-0.00541392  0.00535021           0
-0.00308807  0.00272334 0.000167477
 -0.00308807   0.00272334 -0.000167477
-0.0062281 0.00489169          0
 -0.00208413   0.00173502 -5.51507e-05
-0.00208413  0.00173502 5.51507e-05
-0.00346377  0.00305468           0
-0.00153943  0.00143694 0.000213613
-0.00344375  0.00340322 0.000588688
-0.00650909  0.00573819 0.000704815
-0.00112341  0.00093532 8.91912e-05
-0.00541172  0.00534806 0.000307014
-0.00173868  0.00162336 4.83766e-05
-0.00189522  0.00176934 0.000157526
 -0.00650909   0.00573819 -0.000704815
 -0.00112341   0.00093532 -8.91912e-05
 -0.00153943   0.00143694 -0.000213613
 -0.00344375   0.00340322 -0.000588688
 -0.00173868   0.00162336 -4.83766e-05
 -0.00541172   0.00534806 -0.000307014
 -0.00189522   0.00176934 -0.000157526
-0.000589047  0.000436465 -1.49091e-05
  -0.0129619    0.0101805 -0.000669333
 -0.0129619   0.0101805 0.000669333
-0.000589047  0.000436465  1.49091e-05
-0.00182678  0.00127566           0
-0.00213318 -0.00771781 -0.00131836
-0.00213318 -0.00771781  0.00131836
-0.000510524 -0.000826046            0
-0.000912894  -0.00208567  0.000188066
-0.000912894  -0.00208567 -0.000188066
-0.000347846  -0.00125849            0
 -0.00167316  -0.00471505 -0.000206815
-0.00167316 -0.00471505 0.000206815
-0.000905536  -0.00206886            0
-0.00229657 -0.00580369 0.000129034
 -0.00229657  -0.00580369 -0.000129034
-0.000243599 -0.000686458            0
 -0.00133654  -0.00423801 -0.000456725
 -0.00108427  -0.00343602 -0.000519655
-0.000585258   -0.0021175 -0.000270218
 -0.00235264  -0.00594024 -0.000659327
-0.00108731 -0.00306176 -0.00026772
  -0.0027379  -0.00692018 -0.000461288
 -0.00128407  -0.00464586 -0.000196749
 -0.00141616  -0.00449331 -9.73964e-05
-0.000626107  -0.00198617  -0.00012822
-0.00108731 -0.00306176  0.00026772
-0.00235264 -0.00594024 0.000659327
 -0.0027379 -0.00692018 0.000461288
-0.00108427 -0.00343602 0.000519655
-0.00133654 -0.00423801 0.000456725
-0.000585258   -0.0021175  0.000270218
-0.00141616 -0.00449331 9.73964e-05
-0.00128407 -0.00464586 0.000196749
-0.000626107  -0.00198617   0.00012822
 -0.0010977 -0.00228484 5.23988e-05
-0.000170129  -0.00038869  1.74944e-05
-0.00168245 -0.00350144 0.000240779
-0.000170129  -0.00038869 -1.74944e-05
  -0.0010977  -0.00228484 -5.23988e-05
 -0.00168245  -0.00350144 -0.000240779
-0.00099256 -0.00174002 4.14091e-05
 -0.00099256  -0.00174002 -4.14091e-05
-0.00306554 -0.00584274           0
-0.00121199 -0.00252909 0.000397981
-0.00296824 -0.00618266  0.00069708
-0.00252575 -0.00578453 0.000774297
  -0.005542 -0.00972262   0.0015616
-0.00214035 -0.00408799 0.000743722
-0.00112561 -0.00197567 0.000410069
-0.00323631 -0.00744807  0.00165765
-0.00466595 -0.00976857  0.00242561
-0.00233683 -0.00488464 0.000989489
-0.000733475  -0.00140238  0.000320074
 -0.0014641  -0.0028087 0.000904862
-0.00656979  -0.0106301  0.00300017
-0.00395497 -0.00695172  0.00210294
-0.00404417 -0.00710289  0.00180816
-2.15089e-05 -4.11921e-05  1.13181e-05
-0.00297065 -0.00843094  0.00183597
-0.00378017 -0.00867827  0.00154424
-0.000581142   -0.0016352  0.000214733
-0.00280988 -0.00711667  0.00109769
-0.00256848  -0.0072579  0.00126489
-3.34025e-05 -8.48785e-05  1.68112e-05
-0.00240923 -0.00389823  0.00036066
-0.000562557   -0.0010722  5.00485e-05
-1.14264e-05 -2.18012e-05  2.96892e-06
-0.00620598  -0.0118344  0.00108043
-0.00418101 -0.00733219  0.00084136
-0.000954323  -0.00167319   0.00011564
 -0.00214035  -0.00408799 -0.000743722
  -0.005542 -0.00972262  -0.0015616
 -0.00112561  -0.00197567 -0.000410069
-0.00296824 -0.00618266 -0.00069708
 -0.00121199  -0.00252909 -0.000397981
 -0.00252575  -0.00578453 -0.000774297
-0.00466595 -0.00976857 -0.00242561
-0.00323631 -0.00744807 -0.00165765
 -0.00233683  -0.00488464 -0.000989489
-0.00378017 -0.00867827 -0.00154424
-0.00297065 -0.00843094 -0.00183597
-0.000581142   -0.0016352 -0.000214733
-0.00256848  -0.0072579 -0.00126489
-0.00280988 -0.00711667 -0.00109769
-3.34025e-05 -8.48785e-05 -1.68112e-05
  -0.0014641   -0.0028087 -0.000904862
-0.000733475  -0.00140238 -0.000320074
-0.00656979  -0.0106301 -0.00300017
-0.00404417 -0.00710289 -0.00180816
-0.00395497 -0.00695172 -0.00210294
-2.15089e-05 -4.11921e-05 -1.13181e-05
-0.000562557   -0.0010722 -5.00485e-05
-0.00240923 -0.00389823 -0.00036066
-1.14264e-05 -2.18012e-05 -2.96892e-06
-0.00418101 -0.00733219 -0.00084136
-0.00620598  -0.0118344 -0.00108043
-0.000954323  -0.00167319  -0.00011564
-0.00128856 -0.00760219 0.000159196
-0.00130433 -0.00968116 0.000402377
-1.39913e-05 -8.25173e-05  5.18186e-06
-0.00664454  0.00323357  0.00147959
-0.00233512 0.000767787 0.000673031
-0.0107486  0.0028793 0.00465878
-0.00514197  0.00153624  0.00185015
-0.0126075 0.00445978 0.00559408
-0.00912799  0.00350721  0.00335884
-0.00275934  0.00101846  0.00111907
-0.0103816 0.00353959 0.00377728
-0.00629745  0.00205102  0.00252471
-0.000208338  4.85733e-05  6.60526e-05
-0.00818842  0.00171355  0.00228682
-0.00635982  0.00123347  0.00199589
-0.00694588  0.00200138  0.00198084
-0.00422627  0.00115437  0.00135397
-0.00727815  0.00228439   0.0023568
-0.000606947  0.000147102  0.000238016
-0.00874647  0.00247916   0.0034663
-0.000836693  0.000215754  0.000297902
-0.00349639  0.00133936  0.00170639
-0.00490933  0.00195582  0.00220456
-0.000917696  0.000337111  0.000484396
-0.00592585  0.00208164   0.0033682
-0.00533439  0.00165523  0.00233918
-0.0098509 0.00290029 0.00469287
-0.000962472  0.000325422  0.000464013
-0.00480225  0.00205729  0.00178859
 -0.004665  0.0019296 0.00191405
-8.08054e-07  2.87663e-07  2.64522e-07
-0.00696046  0.00277597  0.00230447
-0.00348062   0.0012894  0.00101405
 -0.0025161  0.00115077 0.000749411
-0.00654798  0.00290073  0.00219322
-0.00816787  0.00113763           0
-0.00725808 0.000604366 0.000977871
-0.00122608  0.00027927 0.000168473
-0.00862844   0.0013351  0.00117398
-0.000784032  0.000143469   5.3205e-05
-0.00765144 0.000851678 0.000514718
-0.00497135 0.000730617 0.000335888
-0.00429994 0.000571416 0.000436224
-0.00819775  0.00138437 0.000835534
 -0.0015274 0.000248443 0.000313542
-0.00924956  0.00137149  0.00221903
-0.0114776 0.00212616 0.00276822
-0.00972552  0.00101708  0.00164556
-0.00489208 0.000687476 0.000831704
-0.00768834 0.000913779  0.00104088
-0.00715885  0.00152974  0.00122977
-0.00182969 0.000349493  0.00025018
-0.00582293  0.00103019 0.000994993
-0.00530967  0.00111833           0
 -0.0068951  0.00135682 0.000234309
-9.05567e-05  1.58238e-05            0
-0.00337062 0.000542794 0.000113847
-0.00942032  0.00232718           0
-0.00170178 0.000396688 5.82382e-05
-0.00720858  0.00194583 0.000248813
-0.00254841 0.000522939 0.000260871
-0.00750177  0.00181405  0.00077368
-0.00571642  0.00125273 0.000390768
-0.00779873 0.000540512           0
-0.00498732 0.000450096 0.000167251
-0.00404456 0.000506748 0.000136122
-0.00255669 0.000266331           0
-0.000200813  1.95431e-05  2.02686e-05
-0.00346787 0.000264433 0.000232724
-0.00783799 0.000487713 0.000789135
-0.000274594   9.5042e-06            0
  -0.003798 7.84512e-05 0.000126936
-0.00832623 0.000460824 0.000278617
-0.00878805 -0.00249653           0
-0.00473238  -0.0023802  0.00142569
-0.00391973 -0.00124313 0.000834448
-0.00327722 -0.00112608 0.000824202
-0.00967524 -0.00292654  0.00240844
 -0.0101577 -0.00378829  0.00181511
-0.00709045  -0.0023522   0.0012545
-0.000421484 -0.000145925  5.94876e-05
-0.00492941 -0.00124256 0.000856176
 -0.00220107 -0.000586481  0.000305134
-0.00733656 -0.00213816   0.0012859
-0.00392668 -0.00120114 0.000549218
 -0.00165901 -0.000424483  0.000114247
-0.00892726 -0.00298877 0.000623097
 -0.0118682     -0.0035 0.000822768
-0.00528563 -0.00169314 0.000554266
-0.000659209 -0.000184996  6.85694e-05
 -0.0108647 -0.00216776  0.00224191
 -0.00251426 -0.000696298  0.000530017
-0.00581074 -0.00144299  0.00163977
-0.00885151 -0.00232528  0.00218049
 -0.00151368 -0.000338465  0.000368997
-0.000102712 -2.44343e-05  2.14211e-05
-0.000816055 -0.000361735  0.000178806
-0.00364793 -0.00150754  0.00107449
 -0.00261609 -0.000937382  0.000562497
 -0.00215055 -0.000828648  0.000546455
 -0.0057308 -0.00229331  0.00124378
-0.00910727 -0.00390072  0.00233815
 -0.00233512 -0.000767787  0.000673031
-0.000793036 -0.000352431  0.000360485
-0.0107486 -0.0028793 0.00465878
 -0.0126075 -0.00445978  0.00559408
-0.00514197 -0.00153624  0.00185015
-0.00912799 -0.00350721  0.00335884
 -0.0103816 -0.00353959  0.00377728
-0.00275934 -0.00101846  0.00111907
-0.00629745 -0.00205102  0.00252471
 -0.0107522 -0.00444973  0.00574785
-0.000917696 -0.000337111  0.000484396
-0.00516288 -0.00205533  0.00297287
-0.00592585 -0.00208164   0.0033682
-0.00526814 -0.00226144  0.00260353
-0.00349639 -0.00133936  0.00170639
-0.00490933 -0.00195582  0.00220456
 -0.0098509 -0.00290029  0.00469287
-0.00533439 -0.00165523  0.00233918
-0.000962472 -0.000325422  0.000464013
-0.00422627 -0.00115437  0.00135397
-0.00694588 -0.00200138  0.00198084
-0.00727815 -0.00228439   0.0023568
-0.00818842 -0.00171355  0.00228682
-0.000208338 -4.85733e-05  6.60526e-05
-0.00635982 -0.00123347  0.00199589
-0.00874647 -0.00247916   0.0034663
-0.000606947 -0.000147102  0.000238016
-0.000836693 -0.000215754  0.000297902
-0.00324198 -0.00153669  0.00122244
-0.00696046 -0.00277597  0.00230447
-8.08054e-07 -2.87663e-07  2.64522e-07
-0.00348062  -0.0012894  0.00101405
 -0.004665 -0.0019296 0.00191405
-0.00480225 -0.00205729  0.00178859
-0.000549986 -0.000252612  0.000228552
 -0.0025161 -0.00115077 0.000749411
-0.00224275 -0.00109567 0.000760299
-0.00654798 -0.00290073  0.00219322
-0.00181023 -0.00101389 0.000274591
-0.000108856 -4.21893e-05  1.55046e-05
-0.000774417 -0.000341372            0
-0.00683959 -0.00283193 0.000489555
-0.00501644 -0.00250201 0.000369757
 -0.00180916 -0.000852047  0.000265786
-0.00359127 -0.00174119 0.000396435
-0.000725751 -0.000320863  7.89059e-05
  -0.010022 -0.00456741 0.000727861
 -0.00118618 -0.000427595            0
 -0.0112643 -0.00391546 0.000394242
-3.29247e-05 -1.01811e-05  1.13956e-06
-0.00869638   -0.002799           0
-0.00394875 -0.00142499 0.000417352
-0.00465093 -0.00173901 0.000328708
-0.000768257 -0.000307912  8.22445e-05
-0.00602055 -0.00240874           0
 -0.00232066 -0.000991806  8.33634e-05
-0.00395364 -0.00153006 0.000140065
-0.000262391 -0.000138068            0
-0.00850945 -0.00501057  0.00065077
-0.000564606 -0.000306554  4.23833e-05
-0.00940615 -0.00540305  0.00107411
-0.00314424 -0.00166314 0.000352402
 -0.00105345 -0.000635593  4.04989e-05
-0.00754381 -0.00420231 0.000284307
-0.00693441 -0.00396094           0
 -0.00186987 -0.000877779  6.80713e-05
-0.00285544 -0.00137857           0
-0.00734597 -0.00376424 0.000271943
-0.00744764 -0.00395894  0.00168595
 -0.0121348 -0.00607635  0.00225648
-0.000794072  -0.00040873  0.000118516
-0.00731822 -0.00399446  0.00138358
-0.00752393 -0.00322499  0.00108824
 -0.00126136 -0.000576591  0.000230833
-0.00303728 -0.00126046 0.000547289
 -0.0105894 -0.00547785  0.00279299
-0.00273454  -0.0012922 0.000709348
-0.00664454 -0.00323357  0.00147959
 -0.00725808 -0.000604366  0.000977871
-0.00816787 -0.00113763           0
-0.00122608 -0.00027927 0.000168473
-0.000784032 -0.000143469   5.3205e-05
-0.00862844  -0.0013351  0.00117398
 -0.00765144 -0.000851678  0.000514718
 -0.00429994 -0.000571416  0.000436224
 -0.00497135 -0.000730617  0.000335888
-0.00819775 -0.00138437 0.000835534
-0.00530967 -0.00111833           0
 -0.00170178 -0.000396688  5.82382e-05
-0.00942032 -0.00232718           0
-0.00720858 -0.00194583 0.000248813
-9.05567e-05 -1.58238e-05            0
 -0.0068951 -0.00135682 0.000234309
 -0.00337062 -0.000542794  0.000113847
-0.00750177 -0.00181405  0.00077368
 -0.00254841 -0.000522939  0.000260871
-0.00571642 -0.00125273 0.000390768
 -0.00489208 -0.000687476  0.000831704
-0.00972552 -0.00101708  0.00164556
 -0.00768834 -0.000913779   0.00104088
-0.00924956 -0.00137149  0.00221903
  -0.0015274 -0.000248443  0.000313542
 -0.0114776 -0.00212616  0.00276822
 -0.00182969 -0.000349493   0.00025018
-0.00715885 -0.00152974  0.00122977
-0.00582293 -0.00103019 0.000994993
 -0.00779873 -0.000540512            0
 -0.00346787 -0.000264433  0.000232724
-0.000200813 -1.95431e-05  2.02686e-05
 -0.00783799 -0.000487713  0.000789135
 -0.00404456 -0.000506748  0.000136122
 -0.00498732 -0.000450096  0.000167251
 -0.00255669 -0.000266331            0
   -0.003798 -7.84512e-05  0.000126936
-0.000274594  -9.5042e-06            0
 -0.00832623 -0.000460824  0.000278617
-0.00930954 -0.00215529  0.00942051
 -0.00443239 -0.000118129   0.00374562
 -0.00392116 -0.000203563   0.00311722
 -0.00475272 -0.000379974    0.0040167
-0.00392116 0.000203563  0.00311722
-0.00443239 0.000118129  0.00374562
-0.00475272 0.000379974   0.0040167
-0.000666019 -1.87307e-05  0.000634884
-0.000666019  1.87307e-05  0.000634884
-6.85566e-05            0   6.1549e-05
-0.00644784 0.000352763  0.00578875
-0.00186669 0.000214674  0.00188894
-0.00537818 0.000882109  0.00482463
-0.00796576  0.00111651  0.00759116
-0.0104142 0.00113718 0.00934612
 -0.0016454 0.000138151  0.00156834
 -0.00186669 -0.000214674   0.00188894
 -0.00644784 -0.000352763   0.00578875
 -0.00537818 -0.000882109   0.00482463
 -0.0104142 -0.00113718  0.00934612
-0.00796576 -0.00111651  0.00759116
  -0.0016454 -0.000138151   0.00156834
-0.00096337 4.79316e-05 0.000676947
 -0.00096337 -4.79316e-05  0.000676947
-0.00408106           0  0.00324429
 -0.00272605 -6.92892e-05    0.0020386
-0.00272605 6.92892e-05   0.0020386
-0.000303249            0  0.000213086
-0.000640716 -6.66354e-05  0.000509353
 -0.00409152 -0.000761785    0.0025287
-0.0057578 -0.0017994 0.00460556
-6.84255e-05 -1.68413e-05  4.81933e-05
-0.00547587 -0.00113236  0.00436642
 -0.00551823 -0.000809081   0.00388057
-0.00330819 -0.00058206  0.00247822
 -0.00422039 -0.000827383   0.00297016
-0.00581153 -0.00131823  0.00435855
-0.000582744 -0.000203005  0.000411439
-0.00470914 -0.00148074  0.00311227
-0.000328192 -0.000108811  0.000202834
-0.00565549 -0.00206658  0.00374053
-0.00641165 -0.00149926   0.0039626
 -0.0107256 -0.00283652  0.00708412
 -0.0114719 -0.00247167  0.00757325
 -0.0077122 -0.00255077  0.00580054
-0.00834933 -0.00232449   0.0062685
 -0.00190373 -0.000564896   0.00134245
 -0.0119256 -0.00326546   0.0107469
 -0.00337395 -0.000627142   0.00285484
-0.000419472 -5.58703e-05  0.000354301
 -0.00401213 -0.000622358   0.00319434
 -0.00300319 -0.000590759   0.00286112
-0.00812266 -0.00177492  0.00730309
0 0 0
-0.000643488 -0.000166787  0.000513906
 -0.00163707 -0.000480588   0.00139063
  -0.0028906 -0.000691813   0.00245053
 -0.00583631 -0.000572116   0.00410262
-0.000265097 -3.33322e-05  0.000198339
 -0.00647634 -0.000493783   0.00484263
 -0.00414236 -0.000690693   0.00273356
-0.000795219 -9.46186e-05  0.000524619
 -0.00117801 -0.000163911   0.00072806
 -0.00270068 -6.58522e-05   0.00178116
-0.000494013 -2.28178e-05  0.000305321
 -0.00711596 -0.000508994   0.00469354
-0.00409152 0.000761785   0.0025287
-0.000640716  6.66354e-05  0.000509353
-0.00547587  0.00113236  0.00436642
-6.84255e-05  1.68413e-05  4.81933e-05
-0.00551823 0.000809081  0.00388057
-0.00422039 0.000827383  0.00297016
-0.00330819  0.00058206  0.00247822
-0.00581153  0.00131823  0.00435855
-0.00812266  0.00177492  0.00730309
-0.00300319 0.000590759  0.00286112
-0.000419472  5.58703e-05  0.000354301
-0.00337395 0.000627142  0.00285484
-0.00401213 0.000622358  0.00319434
-0.000643488  0.000166787  0.000513906
 -0.0028906 0.000691813  0.00245053
-0.0107256 0.00283652 0.00708412
-0.00641165  0.00149926   0.0039626
-0.0114719 0.00247167 0.00757325
-0.000328192  0.000108811  0.000202834
-0.00470914  0.00148074  0.00311227
-0.00834933  0.00232449   0.0062685
-0.00190373 0.000564896  0.00134245
-0.000795219  9.46186e-05  0.000524619
-0.00414236 0.000690693  0.00273356
-0.00117801 0.000163911  0.00072806
-0.000265097  3.33322e-05  0.000198339
-0.00583631 0.000572116  0.00410262
-0.00647634 0.000493783  0.00484263
-0.000494013  2.28178e-05  0.000305321
-0.00270068 6.58522e-05  0.00178116
-0.00711596 0.000508994  0.00469354
-0.000650864 -8.57253e-05  0.000828687
-0.00535021           0  0.00541392
-0.00272334 0.000167477  0.00308807
 -0.00272334 -0.000167477   0.00308807
-0.00489169           0   0.0062281
 -0.00173502 -5.51507e-05   0.00208413
-0.00173502 5.51507e-05  0.00208413
-0.00305468           0  0.00346377
-0.00298877 0.000623097  0.00892726
-0.000424483  0.000114247   0.00165901
    -0.0035 0.000822768   0.0118682
-0.000184996  6.85694e-05  0.000659209
-0.00169314 0.000554266  0.00528563
-0.000361735  0.000178806  0.000816055
-0.000937382  0.000562497   0.00261609
-0.00150754  0.00107449  0.00364793
-0.000828648  0.000546455   0.00215055
-0.00390072  0.00233815  0.00910727
-0.00229331  0.00124378   0.0057308
-0.00216776  0.00224191   0.0108647
-0.00144299  0.00163977  0.00581074
-0.000696298  0.000530017   0.00251426
-0.00232528  0.00218049  0.00885151
-2.44343e-05  2.14211e-05  0.000102712
-0.000338465  0.000368997   0.00151368
-0.000767787  0.000673031   0.00233512
-0.0028793 0.00465878  0.0107486
-0.00445978  0.00559408   0.0126075
-0.00350721  0.00335884  0.00912799
-0.00153624  0.00185015  0.00514197
-0.00353959  0.00377728   0.0103816
-0.00205102  0.00252471  0.00629745
-0.00101846  0.00111907  0.00275934
-0.000337111  0.000484396  0.000917696
-0.00208164   0.0033682  0.00592585
-0.00290029  0.00469287   0.0098509
-0.000325422  0.000464013  0.000962472
-0.00165523  0.00233918  0.00533439
-0.00195582  0.00220456  0.00490933
-0.00133936  0.00170639  0.00349639
-0.00277597  0.00230447  0.00696046
-0.0012894 0.00101405 0.00348062
-2.87663e-07  2.64522e-07  8.08054e-07
-0.00115077 0.000749411   0.0025161
-0.00290073  0.00219322  0.00654798
-0.0019296 0.00191405   0.004665
-0.00205729  0.00178859  0.00480225
-0.00115437  0.00135397  0.00422627
-0.00228439   0.0023568  0.00727815
-0.00200138  0.00198084  0.00694588
-0.00247916   0.0034663  0.00874647
-0.000215754  0.000297902  0.000836693
-0.000147102  0.000238016  0.000606947
-0.00171355  0.00228682  0.00818842
-0.00123347  0.00199589  0.00635982
-4.85733e-05  6.60526e-05  0.000208338
-0.000604366  0.000977871   0.00725808
-0.00027927 0.000168473  0.00122608
-0.000143469   5.3205e-05  0.000784032
-0.000851678  0.000514718   0.00765144
-0.0013351 0.00117398 0.00862844
-0.000571416  0.000436224   0.00429994
-0.00138437 0.000835534  0.00819775
-0.000730617  0.000335888   0.00497135
-0.000396688  5.82382e-05   0.00170178
-0.00194583 0.000248813  0.00720858
-0.00181405  0.00077368  0.00750177
-0.00125273 0.000390768  0.00571642
-0.000522939  0.000260871   0.00254841
-0.000542794  0.000113847   0.00337062
-0.00135682 0.000234309   0.0068951
-0.000264433  0.000232724   0.00346787
-0.000487713  0.000789135   0.00783799
-1.95431e-05  2.02686e-05  0.000200813
-7.84512e-05  0.000126936     0.003798
-0.000460824  0.000278617   0.00832623
-0.000506748  0.000136122   0.00404456
-0.000450096  0.000167251   0.00498732
-0.000687476  0.000831704   0.00489208
-0.000913779   0.00104088   0.00768834
-0.00101708  0.00164556  0.00972552
-0.000349493   0.00025018   0.00182969
-0.00103019 0.000994993  0.00582293
-0.00152974  0.00122977  0.00715885
-0.00137149  0.00221903  0.00924956
-0.00212616  0.00276822   0.0114776
-0.000248443  0.000313542    0.0015274
-4.21893e-05  1.55046e-05  0.000108856
-0.00283193 0.000489555  0.00683959
-0.000852047  0.000265786   0.00180916
-0.00250201 0.000369757  0.00501644
-0.00174119 0.000396435  0.00359127
-0.00456741 0.000727861    0.010022
-0.000320863  7.89059e-05  0.000725751
-0.00391546 0.000394242   0.0112643
-1.01811e-05  1.13956e-06  3.29247e-05
-0.00153006 0.000140065  0.00395364
-0.000991806  8.33634e-05   0.00232066
-0.00142499 0.000417352  0.00394875
-0.000307912  8.22445e-05  0.000768257
-0.00173901 0.000328708  0.00465093
-0.00607635  0.00225648   0.0121348
-0.00040873 0.000118516 0.000794072
-0.00323357  0.00147959  0.00664454
 -0.0012922 0.000709348  0.00273454
-0.00322499  0.00108824  0.00752393
-0.00126046 0.000547289  0.00303728
-0.000576591  0.000230833   0.00126136
-0.000306554  4.23833e-05  0.000564606
-0.00166314 0.000352402  0.00314424
-0.000877779  6.80713e-05   0.00186987
-0.00376424 0.000271943  0.00734597
-0.00420231 0.000284307  0.00754381
0.00784686 0.00299725 0.00484961
0.00299725 0.00484961 0.00784686
0.00338652 0.00547944 0.00468005
0.00468005 0.00338652 0.00547944
0.00547944 0.00468005 0.00338652
0.00253758 0.00201482 0.00221447
0.00221447 0.00253758 0.00201482
0.00201482 0.00221447 0.00253758
0.00279154  0.0031366 0.00300478
0.00300478 0.00279154  0.0031366
 0.0031366 0.00300478 0.00279154
7.07688e-05  6.6793e-05 6.83112e-05
6.83112e-05 7.07688e-05  6.6793e-05
 6.6793e-05 6.83112e-05 7.07688e-05
0.00139946 0.00187771 0.00169503
0.00413793 0.00609534 0.00511852
0.00104465 0.00153452 0.00140692
0.000386056 0.000479044 0.000387911
0.00156239 0.00192395 0.00170894
 0.0023504 0.00266769 0.00233004
0.00568952 0.00689336 0.00731681
0.00232436 0.00258392  0.0027092
0.00116582 0.00142423 0.00138436
0.00138436 0.00116582 0.00142423
0.00731681 0.00568952 0.00689336
 0.0027092 0.00232436 0.00258392
0.00140692 0.00104465 0.00153452
0.00169503 0.00139946 0.00187771
0.00511852 0.00413793 0.00609534
0.00233004  0.0023504 0.00266769
0.000387911 0.000386056 0.000479044
0.00170894 0.00156239 0.00192395
0.00192395 0.00170894 0.00156239
0.00266769 0.00233004  0.0023504
0.000479044 0.000387911 0.000386056
0.00258392  0.0027092 0.00232436
0.00142423 0.00138436 0.00116582
0.00689336 0.00731681 0.00568952
0.00609534 0.00511852 0.00413793
0.00153452 0.00140692 0.00104465
0.00187771 0.00169503 0.00139946
0.00230703 0.00154948 0.00183883
0.00383822 0.00283685  0.0030745
0.00500325 0.00361338 0.00433675
0.00260848 0.00167524 0.00175944
0.00431291 0.00269501 0.00316018
0.00573914 0.00333774 0.00386417
0.00271303 0.00159659 0.00232179
0.00625222 0.00340772 0.00493501
1.04552e-05 6.34582e-06 8.29249e-06
 0.00166143 0.000936422  0.00121335
  0.0017167 0.000770813  0.00124721
0.00311173  0.0015152 0.00192314
 0.00205331 0.000961553  0.00137855
0.000281399 0.000147455 0.000189182
0.00571395 0.00288756 0.00416193
0.00218019 0.00134202 0.00217143
0.00985591 0.00644442 0.00848766
 0.0030709 0.00233536 0.00311588
0.000107491 7.57502e-05 0.000100437
0.00632046 0.00433766 0.00635262
0.00529042 0.00336014 0.00490461
0.00801729 0.00577559 0.00495496
0.000744617   0.0006143 0.000552049
0.00240583 0.00165703 0.00176891
0.00150107 0.00113353 0.00110817
0.00206384 0.00145462 0.00139474
 0.00122875 0.000946863 0.000832158
8.29249e-06 1.04552e-05 6.34582e-06
0.00232179 0.00271303 0.00159659
0.00493501 0.00625222 0.00340772
0.00433675 0.00500325 0.00361338
0.00183883 0.00230703 0.00154948
 0.0030745 0.00383822 0.00283685
0.00386417 0.00573914 0.00333774
0.00175944 0.00260848 0.00167524
0.00316018 0.00431291 0.00269501
0.00176891 0.00240583 0.00165703
0.00495496 0.00801729 0.00577559
0.000552049 0.000744617   0.0006143
0.000832158  0.00122875 0.000946863
0.00110817 0.00150107 0.00113353
0.00139474 0.00206384 0.00145462
0.00192314 0.00311173  0.0015152
 0.00121335  0.00166143 0.000936422
 0.00124721   0.0017167 0.000770813
0.00416193 0.00571395 0.00288756
 0.00137855  0.00205331 0.000961553
0.000189182 0.000281399 0.000147455
0.00311588  0.0030709 0.00233536
0.00217143 0.00218019 0.00134202
0.00848766 0.00985591 0.00644442
0.00490461 0.00529042 0.00336014
0.000100437 0.000107491 7.57502e-05
0.00635262 0.00632046 0.00433766
0.00269501 0.00316018 0.00431291
0.00333774 0.00386417 0.00573914
0.00167524 0.00175944 0.00260848
0.00340772 0.00493501 0.00625222
6.34582e-06 8.29249e-06 1.04552e-05
0.00159659 0.00232179 0.00271303
0.00283685  0.0030745 0.00383822
0.00361338 0.00433675 0.00500325
0.00154948 0.00183883 0.00230703
0.00644442 0.00848766 0.00985591
0.00233536 0.00311588  0.0030709
0.00134202 0.00217143 0.00218019
0.00433766 0.00635262 0.00632046
0.00336014 0.00490461 0.00529042
7.57502e-05 0.000100437 0.000107491
  0.0006143 0.000552049 0.000744617
0.00165703 0.00176891 0.00240583
0.00577559 0.00495496 0.00801729
0.00145462 0.00139474 0.00206384
0.000946863 0.000832158  0.00122875
0.00113353 0.00110817 0.00150107
0.000770813  0.00124721   0.0017167
 0.0015152 0.00192314 0.00311173
0.000936422  0.00121335  0.00166143
0.000147455 0.000189182 0.000281399
0.00288756 0.00416193 0.00571395
0.000961553  0.00137855  0.00205331
0.000664739  0.00191112  0.00143506
0.00253048  0.0081185 0.00572621
0.00117295 0.00386335 0.00296164
0.00326317 0.00819644 0.00552773
0.00103215 0.00263055 0.00193387
0.00228739 0.00523271 0.00376439
0.00196114 0.00516545 0.00447727
0.000797761  0.00186828  0.00158882
0.00142162  0.0036808 0.00294166
0.00124269 0.00287522 0.00225164
0.00269852 0.00520196 0.00462097
 0.0015114 0.00288309 0.00216266
0.000533459   0.0010228 0.000835882
0.000369312 0.000772653 0.000592402
 0.0020155 0.00425176 0.00354581
0.000498778  0.00153399    0.001465
0.00129932 0.00381593 0.00311072
 0.0022701 0.00908123 0.00768584
5.56462e-05 0.000188484 0.000156586
0.00120171 0.00419622 0.00377231
0.00203077 0.00609716 0.00538333
0.000749634  0.00203613  0.00117511
0.00285226 0.00998358 0.00606221
0.00121055 0.00341206 0.00235404
0.00307088 0.00961515  0.0062262
8.26909e-05 0.000228666 0.000144583
0.00189251 0.00579107 0.00342958
0.00120805 0.00449516 0.00323959
8.57253e-05 0.000828687 0.000650864
0.00110367 0.00857226 0.00571954
0.00122593 0.00657143 0.00494747
0.00138239 0.00665685 0.00423972
0.00108933 0.00551883 0.00382691
0.000975416  0.00579569   0.0037789
0.000243819  0.00155303  0.00110121
0.000708498   0.0142817  0.00997301
0.000275717  0.00435104   0.0027944
9.23408e-05  0.00379423  0.00249437
0.00114085   0.011173 0.00700837
0.000690572  0.00491569  0.00301065
0.000532728  0.00701565  0.00519781
0.000749727  0.00643867  0.00466627
7.45803e-07 8.34496e-06 5.69694e-06
0.000790187  0.00485782  0.00428086
0.000494241  0.00227306  0.00181479
0.00319475  0.0123053 0.00961996
0.000877417  0.00385303  0.00283875
0.000699434  0.00291753  0.00266939
0.000314904  0.00152518  0.00131736
0.000767045  0.00393844   0.0036752
0.00154441  0.0106386 0.00818191
5.52758e-05 0.000417786  0.00034764
0.00168886 0.00965235 0.00786811
0.00189951 0.00770079 0.00479028
7.45679e-05  0.00031399 0.000212825
0.000792487  0.00285663  0.00189292
0.00141447 0.00789697 0.00472018
0.00120995 0.00557037 0.00324835
0.00108763 0.00370413 0.00205244
6.57847e-06 2.57564e-05  1.4645e-05
0.000350774 0.000793917 0.000523015
0.00601366 0.00973036 0.00582828
0.00634401  0.0120043 0.00755519
 0.0070805  0.0133113 0.00688921
0.00311528 0.00694693 0.00380425
0.00167798 0.00342565 0.00182484
1.58672e-05 3.25576e-05 1.91233e-05
0.00106186 0.00200263 0.00114626
1.80047e-05 3.15464e-05 2.31986e-05
 0.0021433 0.00376345 0.00301188
0.00341786  0.0055302 0.00434392
0.00269566 0.00559504 0.00393374
0.00528163  0.0100334 0.00690653
0.00432515 0.00892061  0.0057465
0.00367446 0.00594538 0.00391413
0.000191123 0.000333652 0.000204971
0.00213167 0.00372773  0.0025104
0.00281678 0.00528209  0.0024556
0.00254842 0.00517676 0.00248522
0.000108329 0.000188332 8.46408e-05
    0.0034 0.00550126 0.00238587
0.000167637 0.000292188 0.000162777
0.00227237 0.00367675  0.0019926
 0.0052016   0.009054 0.00454875
0.000485231  0.00117796   0.0006007
0.000524908  0.00116246 0.000575593
0.00548245  0.0123145 0.00741408
0.00358571 0.00878666 0.00494201
0.00277313 0.00686338 0.00423394
0.000714194  0.00213846   0.0011531
0.00397997  0.0106788 0.00560252
 0.0017994 0.00460556  0.0057578
0.00411489 0.00665799 0.00782698
 0.00214035  0.00408799 0.000743722
 0.00112561  0.00197567 0.000410069
0.00323631 0.00744807 0.00165765
0.00466595 0.00976857 0.00242561
 0.00233683  0.00488464 0.000989489
0.000733475  0.00140238 0.000320074
  0.0014641   0.0028087 0.000904862
0.00656979  0.0106301 0.00300017
0.00395497 0.00695172 0.00210294
0.00404417 0.00710289 0.00180816
2.15089e-05 4.11921e-05 1.13181e-05
0.00297065 0.00843094 0.00183597
0.00378017 0.00867827 0.00154424
0.000581142   0.0016352 0.000214733
0.00280988 0.00711667 0.00109769
0.00256848  0.0072579 0.00126489
3.34025e-05 8.48785e-05 1.68112e-05
0.00240923 0.00389823 0.00036066
0.000562557   0.0010722 5.00485e-05
1.14264e-05 2.18012e-05 2.96892e-06
0.00620598  0.0118344 0.00108043
0.00418101 0.00733219 0.00084136
0.000954323  0.00167319  0.00011564
  0.00214035   0.00408799 -0.000743722
  0.005542 0.00972262 -0.0015616
  0.00112561   0.00197567 -0.000410069
 0.00296824  0.00618266 -0.00069708
  0.00121199   0.00252909 -0.000397981
  0.00252575   0.00578453 -0.000774297
 0.00466595  0.00976857 -0.00242561
 0.00323631  0.00744807 -0.00165765
  0.00233683   0.00488464 -0.000989489
 0.00378017  0.00867827 -0.00154424
 0.00297065  0.00843094 -0.00183597
 0.000581142    0.0016352 -0.000214733
 0.00256848   0.0072579 -0.00126489
 0.00280988  0.00711667 -0.00109769
 3.34025e-05  8.48785e-05 -1.68112e-05
   0.0014641    0.0028087 -0.000904862
 0.000733475   0.00140238 -0.000320074
 0.00656979   0.0106301 -0.00300017
 0.00404417  0.00710289 -0.00180816
 0.00395497  0.00695172 -0.00210294
 2.15089e-05  4.11921e-05 -1.13181e-05
 0.000562557    0.0010722 -5.00485e-05
 0.00240923  0.00389823 -0.00036066
 1.14264e-05  2.18012e-05 -2.96892e-06
 0.00418101  0.00733219 -0.00084136
 0.00620598   0.0118344 -0.00108043
0.000954323  0.00167319 -0.00011564
 0.00128856  0.00760219 0.000159196
 0.00130433  0.00968116 0.000402377
1.39913e-05 8.25173e-05 5.18186e-06
  0.00130433   0.00968116 -0.000402377
  0.00128856   0.00760219 -0.000159196
 1.39913e-05  8.25173e-05 -5.18186e-06
0.000318239  0.00132451 2.81247e-05
 0.000318239   0.00132451 -2.81247e-05
0.00136691 0.00667771          0
 0.000614576   0.00300234 -0.000126525
 2.42041e-05  8.75704e-05 -7.42942e-06
 0.000377503   0.00184848 -0.000233311
  0.00211179   0.00879598 -0.000929358
  0.00167834   0.00820867 -0.000689855
  0.00235171   0.00979048 -0.000619644
2.42041e-05 8.75704e-05 7.42942e-06
0.000614576  0.00300234 0.000126525
0.000377503  0.00184848 0.000233311
 0.00167834  0.00820867 0.000689855
 0.00211179  0.00879598 0.000929358
 0.00235171  0.00979048 0.000619644
 0.000412156   0.00615644 -0.000254725
0.000412156  0.00615644 0.000254725
0.00103276 0.00766564          0
5.36908e-05  0.00053297 1.10585e-05
 5.36908e-05   0.00053297 -1.10585e-05
0.000484245  0.00723323           0
 0.0012545 0.00709045 -0.0023522
 0.00181511   0.0101577 -0.00378829
 5.94876e-05  0.000421484 -0.000145925
0.000824202  0.00327722 -0.00112608
0.000834448  0.00391973 -0.00124313
 0.00240844  0.00967524 -0.00292654
 0.000305134   0.00220107 -0.000586481
0.000856176  0.00492941 -0.00124256
  0.0012859  0.00733656 -0.00213816
 0.000530017   0.00251426 -0.000696298
 0.00224191   0.0108647 -0.00216776
 0.00163977  0.00581074 -0.00144299
 0.000368997   0.00151368 -0.000338465
 0.00218049  0.00885151 -0.00232528
 2.14211e-05  0.000102712 -2.44343e-05
 0.000114247   0.00165901 -0.000424483
0.000549218  0.00392668 -0.00120114
0.000623097  0.00892726 -0.00298877
0.000554266  0.00528563 -0.00169314
0.000822768   0.0118682     -0.0035
 6.85694e-05  0.000659209 -0.000184996
 0.00107449  0.00364793 -0.00150754
 0.000178806  0.000816055 -0.000361735
 0.000562497   0.00261609 -0.000937382
 0.00124378   0.0057308 -0.00229331
 0.000546455   0.00215055 -0.000828648
 0.00233815  0.00910727 -0.00390072
 1.55046e-05  0.000108856 -4.21893e-05
0.000369757  0.00501644 -0.00250201
0.000489555  0.00683959 -0.00283193
 0.000265786   0.00180916 -0.000852047
 7.89059e-05  0.000725751 -0.000320863
0.000396435  0.00359127 -0.00174119
0.000727861    0.010022 -0.00456741
0.000284307  0.00754381 -0.00420231
 4.23833e-05  0.000564606 -0.000306554
0.000352402  0.00314424 -0.00166314
 6.80713e-05   0.00186987 -0.000877779
0.000271943  0.00734597 -0.00376424
0.000328708  0.00465093 -0.00173901
0.000417352  0.00394875 -0.00142499
 8.22445e-05  0.000768257 -0.000307912
 1.13956e-06  3.29247e-05 -1.01811e-05
0.000394242   0.0112643 -0.00391546
 8.33634e-05   0.00232066 -0.000991806
0.000140065  0.00395364 -0.00153006
 0.000230833   0.00126136 -0.000576591
 0.00108824  0.00752393 -0.00322499
0.000547289  0.00303728 -0.00126046
0.000118516 0.000794072 -0.00040873
 0.00225648   0.0121348 -0.00607635
0.000709348  0.00273454  -0.0012922
 0.00147959  0.00664454 -0.00323357
 0.000673031   0.00233512 -0.000767787
0.00465878  0.0107486 -0.0028793
 0.00185015  0.00514197 -0.00153624
 0.00559408   0.0126075 -0.00445978
 0.00335884  0.00912799 -0.00350721
 0.00111907  0.00275934 -0.00101846
 0.00377728   0.0103816 -0.00353959
 0.00252471  0.00629745 -0.00205102
 6.60526e-05  0.000208338 -4.85733e-05
 0.00228682  0.00818842 -0.00171355
 0.00199589  0.00635982 -0.00123347
 0.00198084  0.00694588 -0.00200138
 0.00135397  0.00422627 -0.00115437
  0.0023568  0.00727815 -0.00228439
 0.000238016  0.000606947 -0.000147102
  0.0034663  0.00874647 -0.00247916
 0.000297902  0.000836693 -0.000215754
 0.00170639  0.00349639 -0.00133936
 0.00220456  0.00490933 -0.00195582
 0.000484396  0.000917696 -0.000337111
  0.0033682  0.00592585 -0.00208164
 0.00233918  0.00533439 -0.00165523
 0.00469287   0.0098509 -0.00290029
 0.000464013  0.000962472 -0.000325422
 0.00178859  0.00480225 -0.00205729
0.00191405   0.004665 -0.0019296
 2.64522e-07  8.08054e-07 -2.87663e-07
 0.00230447  0.00696046 -0.00277597
0.00101405 0.00348062 -0.0012894
0.000749411   0.0025161 -0.00115077
 0.00219322  0.00654798 -0.00290073
 0.000977871   0.00725808 -0.000604366
0.000168473  0.00122608 -0.00027927
0.00117398 0.00862844 -0.0013351
  5.3205e-05  0.000784032 -0.000143469
 0.000514718   0.00765144 -0.000851678
 0.000335888   0.00497135 -0.000730617
 0.000436224   0.00429994 -0.000571416
0.000835534  0.00819775 -0.00138437
 0.000313542    0.0015274 -0.000248443
 0.00221903  0.00924956 -0.00137149
 0.00276822   0.0114776 -0.00212616
 0.00164556  0.00972552 -0.00101708
 0.000831704   0.00489208 -0.000687476
  0.00104088   0.00768834 -0.000913779
 0.00122977  0.00715885 -0.00152974
  0.00025018   0.00182969 -0.000349493
0.000994993  0.00582293 -0.00103019
0.000234309   0.0068951 -0.00135682
 0.000113847   0.00337062 -0.000542794
 5.82382e-05   0.00170178 -0.000396688
0.000248813  0.00720858 -0.00194583
 0.000260871   0.00254841 -0.000522939
 0.00077368  0.00750177 -0.00181405
0.000390768  0.00571642 -0.00125273
 0.000167251   0.00498732 -0.000450096
 0.000136122   0.00404456 -0.000506748
 2.02686e-05  0.000200813 -1.95431e-05
 0.000232724   0.00346787 -0.000264433
 0.000789135   0.00783799 -0.000487713
 0.000126936     0.003798 -7.84512e-05
 0.000278617   0.00832623 -0.000460824
0.00142569 0.00473238  0.0023802
0.000834448  0.00391973  0.00124313
0.000824202  0.00327722  0.00112608
0.00240844 0.00967524 0.00292654
0.00181511  0.0101577 0.00378829
 0.0012545 0.00709045  0.0023522
5.94876e-05 0.000421484 0.000145925
0.000856176  0.00492941  0.00124256
0.000305134  0.00220107 0.000586481
 0.0012859 0.00733656 0.00213816
0.000549218  0.00392668  0.00120114
0.000114247  0.00165901 0.000424483
0.000623097  0.00892726  0.00298877
0.000822768   0.0118682      0.0035
0.000554266  0.00528563  0.00169314
6.85694e-05 0.000659209 0.000184996
0.00224191  0.0108647 0.00216776
0.000530017  0.00251426 0.000696298
0.00163977 0.00581074 0.00144299
0.00218049 0.00885151 0.00232528
0.000368997  0.00151368 0.000338465
2.14211e-05 0.000102712 2.44343e-05
0.000178806 0.000816055 0.000361735
0.00107449 0.00364793 0.00150754
0.000562497  0.00261609 0.000937382
0.000546455  0.00215055 0.000828648
0.00124378  0.0057308 0.00229331
0.00233815 0.00910727 0.00390072
0.000673031  0.00233512 0.000767787
0.000360485 0.000793036 0.000352431
0.00465878  0.0107486  0.0028793
0.00559408  0.0126075 0.00445978
0.00185015 0.00514197 0.00153624
0.00335884 0.00912799 0.00350721
0.00377728  0.0103816 0.00353959
0.00111907 0.00275934 0.00101846
0.00252471 0.00629745 0.00205102
0.00574785  0.0107522 0.00444973
0.000484396 0.000917696 0.000337111
0.00297287 0.00516288 0.00205533
 0.0033682 0.00592585 0.00208164
0.00260353 0.00526814 0.00226144
0.00170639 0.00349639 0.00133936
0.00220456 0.00490933 0.00195582
0.00469287  0.0098509 0.00290029
0.00233918 0.00533439 0.00165523
0.000464013 0.000962472 0.000325422
0.00135397 0.00422627 0.00115437
0.00198084 0.00694588 0.00200138
 0.0023568 0.00727815 0.00228439
0.00228682 0.00818842 0.00171355
6.60526e-05 0.000208338 4.85733e-05
0.00199589 0.00635982 0.00123347
 0.0034663 0.00874647 0.00247916
0.000238016 0.000606947 0.000147102
0.000297902 0.000836693 0.000215754
0.00122244 0.00324198 0.00153669
0.00230447 0.00696046 0.00277597
2.64522e-07 8.08054e-07 2.87663e-07
0.00101405 0.00348062  0.0012894
0.00191405   0.004665  0.0019296
0.00178859 0.00480225 0.00205729
0.000228552 0.000549986 0.000252612
0.000749411   0.0025161  0.00115077
0.000760299  0.00224275  0.00109567
0.00219322 0.00654798 0.00290073
0.000274591  0.00181023  0.00101389
1.55046e-05 0.000108856 4.21893e-05
0.000489555  0.00683959  0.00283193
0.000369757  0.00501644  0.00250201
0.000265786  0.00180916 0.000852047
0.000396435  0.00359127  0.00174119
7.89059e-05 0.000725751 0.000320863
0.000727861    0.010022  0.00456741
0.000394242   0.0112643  0.00391546
1.13956e-06 3.29247e-05 1.01811e-05
0.000417352  0.00394875  0.00142499
0.000328708  0.00465093  0.00173901
8.22445e-05 0.000768257 0.000307912
8.33634e-05  0.00232066 0.000991806
0.000140065  0.00395364  0.00153006
0.00065077 0.00850945 0.00501057
4.23833e-05 0.000564606 0.000306554
0.00107411 0.00940615 0.00540305
0.000352402  0.00314424  0.00166314
4.04989e-05  0.00105345 0.000635593
0.000284307  0.00754381  0.00420231
6.80713e-05  0.00186987 0.000877779
0.000271943  0.00734597  0.00376424
0.00168595 0.00744764 0.00395894
0.00225648  0.0121348 0.00607635
0.000118516 0.000794072  0.00040873
0.00138358 0.00731822 0.00399446
0.00108824 0.00752393 0.00322499
0.000230833  0.00126136 0.000576591
0.000547289  0.00303728  0.00126046
0.00279299  0.0105894 0.00547785
0.000709348  0.00273454   0.0012922
0.00147959 0.00664454 0.00323357
0.000977871  0.00725808 0.000604366
0.000168473  0.00122608  0.00027927
 5.3205e-05 0.000784032 0.000143469
0.00117398 0.00862844  0.0013351
0.000514718  0.00765144 0.000851678
0.000436224  0.00429994 0.000571416
0.000335888  0.00497135 0.000730617
0.000835534  0.00819775  0.00138437
5.82382e-05  0.00170178 0.000396688
0.000248813  0.00720858  0.00194583
0.000234309   0.0068951  0.00135682
0.000113847  0.00337062 0.000542794
0.00077368 0.00750177 0.00181405
0.000260871  0.00254841 0.000522939
0.000390768  0.00571642  0.00125273
0.000831704  0.00489208 0.000687476
0.00164556 0.00972552 0.00101708
 0.00104088  0.00768834 0.000913779
0.00221903 0.00924956 0.00137149
0.000313542   0.0015274 0.000248443
0.00276822  0.0114776 0.00212616
 0.00025018  0.00182969 0.000349493
0.00122977 0.00715885 0.00152974
0.000994993  0.00582293  0.00103019
0.000232724  0.00346787 0.000264433
2.02686e-05 0.000200813 1.95431e-05
0.000789135  0.00783799 0.000487713
0.000136122  0.00404456 0.000506748
0.000167251  0.00498732 0.000450096
 0.00335884 -0.00912799  0.00350721
 0.00185015 -0.00514197  0.00153624
0.00377728 -0.0103816 0.00353959
 0.00252471 -0.00629745  0.00205102
 0.00111907 -0.00275934  0.00101846
0.00574785 -0.0107522 0.00444973
 0.000484396 -0.000917696  0.000337111
  0.0033682 -0.00592585  0.00208164
 0.00297287 -0.00516288  0.00205533
0.00469287 -0.0098509 0.00290029
 0.000464013 -0.000962472  0.000325422
 0.00233918 -0.00533439  0.00165523
 0.00260353 -0.00526814  0.00226144
 0.00220456 -0.00490933  0.00195582
 0.00170639 -0.00349639  0.00133936
 0.00122244 -0.00324198  0.00153669
 0.00230447 -0.00696046  0.00277597
 0.00101405 -0.00348062   0.0012894
 2.64522e-07 -8.08054e-07  2.87663e-07
0.000749411  -0.0025161  0.00115077
 0.00219322 -0.00654798  0.00290073
0.000760299 -0.00224275  0.00109567
0.00191405  -0.004665  0.0019296
 0.000228552 -0.000549986  0.000252612
 0.00178859 -0.00480225  0.00205729
 0.00135397 -0.00422627  0.00115437
  0.0023568 -0.00727815  0.00228439
 0.00198084 -0.00694588  0.00200138
  0.0034663 -0.00874647  0.00247916
 0.000297902 -0.000836693  0.000215754
 0.000238016 -0.000606947  0.000147102
 0.00228682 -0.00818842  0.00171355
 0.00199589 -0.00635982  0.00123347
 6.60526e-05 -0.000208338  4.85733e-05
0.000977871 -0.00725808 0.000604366
0.000168473 -0.00122608  0.00027927
          0 -0.00816787  0.00113763
  5.3205e-05 -0.000784032  0.000143469
0.000514718 -0.00765144 0.000851678
 0.00117398 -0.00862844   0.0013351
0.000436224 -0.00429994 0.000571416
0.000835534 -0.00819775  0.00138437
0.000335888 -0.00497135 0.000730617
          0 -0.00530967  0.00111833
5.82382e-05 -0.00170178 0.000396688
0.000248813 -0.00720858  0.00194583
          0 -0.00942032  0.00232718
 0.00077368 -0.00750177  0.00181405
0.000390768 -0.00571642  0.00125273
0.000260871 -0.00254841 0.000522939
           0 -9.05567e-05  1.58238e-05
0.000113847 -0.00337062 0.000542794
0.000234309  -0.0068951  0.00135682
          0 -0.00779873 0.000540512
0.000232724 -0.00346787 0.000264433
0.000789135 -0.00783799 0.000487713
 2.02686e-05 -0.000200813  1.95431e-05
0.000126936   -0.003798 7.84512e-05
0.000278617 -0.00832623 0.000460824
           0 -0.000274594   9.5042e-06
0.000136122 -0.00404456 0.000506748
          0 -0.00255669 0.000266331
0.000167251 -0.00498732 0.000450096
0.000831704 -0.00489208 0.000687476
 0.00104088 -0.00768834 0.000913779
 0.00164556 -0.00972552  0.00101708
 0.00025018 -0.00182969 0.000349493
0.000994993 -0.00582293  0.00103019
 0.00122977 -0.00715885  0.00152974
 0.00221903 -0.00924956  0.00137149
0.00276822 -0.0114776 0.00212616
0.000313542  -0.0015274 0.000248443
0.000274591 -0.00181023  0.00101389
           0 -0.000774417  0.000341372
 1.55046e-05 -0.000108856  4.21893e-05
0.000489555 -0.00683959  0.00283193
0.000265786 -0.00180916 0.000852047
0.000369757 -0.00501644  0.00250201
0.000396435 -0.00359127  0.00174119
0.000727861   -0.010022  0.00456741
 7.89059e-05 -0.000725751  0.000320863
          0 -0.00118618 0.000427595
0.000394242  -0.0112643  0.00391546
          0 -0.00869638    0.002799
 1.13956e-06 -3.29247e-05  1.01811e-05
          0 -0.00602055  0.00240874
0.000140065 -0.00395364  0.00153006
8.33634e-05 -0.00232066 0.000991806
0.000417352 -0.00394875  0.00142499
 8.22445e-05 -0.000768257  0.000307912
0.000328708 -0.00465093  0.00173901
 0.00168595 -0.00744764  0.00395894
0.00225648 -0.0121348 0.00607635
 0.00138358 -0.00731822  0.00399446
 0.000118516 -0.000794072   0.00040873
0.00279299 -0.0105894 0.00547785
 0.00147959 -0.00664454  0.00323357
0.000709348 -0.00273454   0.0012922
 0.00108824 -0.00752393  0.00322499
0.000547289 -0.00303728  0.00126046
0.000230833 -0.00126136 0.000576591
           0 -0.000262391  0.000138068
 0.00065077 -0.00850945  0.00501057
 4.23833e-05 -0.000564606  0.000306554
0.000352402 -0.00314424  0.00166314
 0.00107411 -0.00940615  0.00540305
6.80713e-05 -0.00186987 0.000877779
0.000271943 -0.00734597  0.00376424
          0 -0.00285544  0.00137857
4.04989e-05 -0.00105345 0.000635593
          0 -0.00693441  0.00396094
0.000284307 -0.00754381  0.00420231
 0.00484961 -0.00784686 -0.00299725
 0.00784686 -0.00299725 -0.00484961
 0.00468005 -0.00338652 -0.00547944
 0.00547944 -0.00468005 -0.00338652
 0.00338652 -0.00547944 -0.00468005
 0.00221447 -0.00253758 -0.00201482
 0.00201482 -0.00221447 -0.00253758
 0.00253758 -0.00201482 -0.00221447
 0.00300478 -0.00279154  -0.0031366
  0.0031366 -0.00300478 -0.00279154
 0.00279154  -0.0031366 -0.00300478
 6.83112e-05 -7.07688e-05  -6.6793e-05
  6.6793e-05 -6.83112e-05 -7.07688e-05
 7.07688e-05  -6.6793e-05 -6.83112e-05
 0.00169503 -0.00139946 -0.00187771
 0.00511852 -0.00413793 -0.00609534
 0.00140692 -0.00104465 -0.00153452
 0.000387911 -0.000386056 -0.000479044
 0.00170894 -0.00156239 -0.00192395
 0.00233004  -0.0023504 -0.00266769
 0.00731681 -0.00568952 -0.00689336
  0.0027092 -0.00232436 -0.00258392
 0.00138436 -0.00116582 -0.00142423
 0.00142423 -0.00138436 -0.00116582
 0.00689336 -0.00731681 -0.00568952
 0.00258392  -0.0027092 -0.00232436
 0.00153452 -0.00140692 -0.00104465
 0.00187771 -0.00169503 -0.00139946
 0.00609534 -0.00511852 -0.00413793
 0.00266769 -0.00233004  -0.0023504
 0.000479044 -0.000387911 -0.000386056
 0.00192395 -0.00170894 -0.00156239
 0.00156239 -0.00192395 -0.00170894
  0.0023504 -0.00266769 -0.00233004
 0.000386056 -0.000479044 -0.000387911
 0.00232436 -0.00258392  -0.0027092
 0.00116582 -0.00142423 -0.00138436
 0.00568952 -0.00689336 -0.00731681
 0.00413793 -0.00609534 -0.00511852
 0.00104465 -0.00153452 -0.00140692
 0.00139946 -0.00187771 -0.00169503
 0.00183883 -0.00230703 -0.00154948
  0.0030745 -0.00383822 -0.00283685
 0.00433675 -0.00500325 -0.00361338
 0.00175944 -0.00260848 -0.00167524
 0.00316018 -0.00431291 -0.00269501
 0.00386417 -0.00573914 -0.00333774
 0.00232179 -0.00271303 -0.00159659
 0.00493501 -0.00625222 -0.00340772
 8.29249e-06 -1.04552e-05 -6.34582e-06
  0.00121335  -0.00166143 -0.000936422
  0.00124721   -0.0017167 -0.000770813
 0.00192314 -0.00311173  -0.0015152
  0.00137855  -0.00205331 -0.000961553
 0.000189182 -0.000281399 -0.000147455
 0.00416193 -0.00571395 -0.00288756
 0.00217143 -0.00218019 -0.00134202
 0.00848766 -0.00985591 -0.00644442
 0.00311588  -0.0030709 -0.00233536
 0.000100437 -0.000107491 -7.57502e-05
 0.00635262 -0.00632046 -0.00433766
 0.00490461 -0.00529042 -0.00336014
 0.00495496 -0.00801729 -0.00577559
 0.000552049 -0.000744617   -0.0006143
 0.00176891 -0.00240583 -0.00165703
 0.00110817 -0.00150107 -0.00113353
 0.00139474 -0.00206384 -0.00145462
 0.000832158  -0.00122875 -0.000946863
 6.34582e-06 -8.29249e-06 -1.04552e-05
 0.00159659 -0.00232179 -0.00271303
 0.00340772 -0.00493501 -0.00625222
 0.00361338 -0.00433675 -0.00500325
 0.00154948 -0.00183883 -0.00230703
 0.00283685  -0.0030745 -0.00383822
 0.00333774 -0.00386417 -0.00573914
 0.00167524 -0.00175944 -0.00260848
 0.00269501 -0.00316018 -0.00431291
 0.00165703 -0.00176891 -0.00240583
 0.00577559 -0.00495496 -0.00801729
   0.0006143 -0.000552049 -0.000744617
 0.000946863 -0.000832158  -0.00122875
 0.00113353 -0.00110817 -0.00150107
 0.00145462 -0.00139474 -0.00206384
  0.0015152 -0.00192314 -0.00311173
0.000936422 -0.00121335 -0.00166143
0.000770813 -0.00124721  -0.0017167
 0.00288756 -0.00416193 -0.00571395
0.000961553 -0.00137855 -0.00205331
 0.000147455 -0.000189182 -0.000281399
 0.00233536 -0.00311588  -0.0030709
 0.00134202 -0.00217143 -0.00218019
 0.00644442 -0.00848766 -0.00985591
 0.00336014 -0.00490461 -0.00529042
 7.57502e-05 -0.000100437 -0.000107491
 0.00433766 -0.00635262 -0.00632046
 0.00431291 -0.00269501 -0.00316018
 0.00573914 -0.00333774 -0.00386417
 0.00260848 -0.00167524 -0.00175944
 0.00625222 -0.00340772 -0.00493501
 1.04552e-05 -6.34582e-06 -8.29249e-06
 0.00271303 -0.00159659 -0.00232179
 0.00383822 -0.00283685  -0.0030745
 0.00500325 -0.00361338 -0.00433675
 0.00230703 -0.00154948 -0.00183883
 0.00985591 -0.00644442 -0.00848766
  0.0030709 -0.00233536 -0.00311588
 0.00218019 -0.00134202 -0.00217143
 0.00632046 -0.00433766 -0.00635262
 0.00529042 -0.00336014 -0.00490461
 0.000107491 -7.57502e-05 -0.000100437
 0.000744617   -0.0006143 -0.000552049
 0.00240583 -0.00165703 -0.00176891
 0.00801729 -0.00577559 -0.00495496
 0.00206384 -0.00145462 -0.00139474
