0.0288803  0.145314 0.0666622
 0.401932 0.0632701 0.0953361
  0.406387  0.0891757 -0.0548885
-0.347447 -0.135197 0.0170396
-0.403586 -0.072983 0.0755601
-0.00212793   -0.147111  0.00539144
 -0.35206 -0.133821 -0.023898
 -0.313771   0.147223 0.00056365
0.0964207  0.128737 0.0985869
 -0.322741  -0.144196 -0.0358321
-0.383118 0.0854343 0.0329221
  0.125692  -0.120834 -0.0854871
 0.394523 0.0838346 0.0883359
  0.286353   0.151624 -0.0694503
-0.152837 -0.134516 0.0535834
  0.114647  -0.128487 -0.0843407
  0.392062 -0.0917328 -0.0295712
  -0.409613 -0.00346506  0.00705758
 -0.406744  0.0509791 -0.0648888
-0.139178  -0.13421 0.0918466
 0.213141 -0.147768  0.108263
 0.361958 0.0815439 -0.114755
-0.406086 0.0653784 0.0897754
 -0.108812 -0.0847685   -0.12047
  0.122372  -0.124411 -0.0416706
-0.00889696   -0.145708   0.0198995
 -0.185042   0.144377 -0.0374442
 0.202735  -0.14817 0.0107159
  -0.122813 -0.00578588  -0.0286488
 0.357211  0.129815 0.0286399
 -0.380755  -0.114451 -0.0610278
 -0.411545 0.00249616  0.0240652
-0.329355  0.140973 -0.108201
 0.207785 -0.149018 0.0798829
  -0.189891   -0.144995 -0.00897153
 -0.287317   0.130595 -0.0523663
 -0.124902 -0.0486587  0.0470182
 0.250733  0.153175 0.0519569
 0.0071999  -0.145692 -0.0340287
 0.379923 -0.110567 0.0238224
 -0.30124 -0.120024 -0.114863
 0.408987 0.0151909 -0.109144
  0.399008  -0.112705 -0.0362898
  0.365311  -0.140002 -0.0832762
-0.422423 -0.021657 0.0848426
   0.322782   -0.143985 -0.00516864
  0.124656  0.0650626 -0.0211972
 0.391434  0.115928 0.0216785
 0.125757 0.0183638 -0.115172
  0.23053 -0.153206 0.0459866
   0.309339   -0.148524 -0.00672616
-0.205241  0.141908  0.117381
  0.384956  0.0623416 -0.0500318
-0.0766397   0.142663   -0.10246
  0.376238   -0.13504 -0.0806565
 -0.153212   0.134744 -0.0692338
 0.230351 -0.151994 0.0872418
 0.358267 -0.100533 -0.107589
-0.0545807   0.142737 -0.0443596
  0.401963 -0.0676037  -0.081957
 0.229037  0.152746 -0.073156
  -0.183435    0.144533 -0.00383508
 0.407128 0.0452521 0.0496297
 0.183647 -0.118887  -0.12475
-0.294646 -0.150708  0.022147
 -0.349498 -0.0898582 -0.0654685
-0.404308 -0.061324 0.0587352
-0.384846 0.0761728   0.10755
 -0.399445 -0.0711315  0.0414859
-0.124514 -0.105037 0.0345795
 0.0153686    0.14698 -0.0489559
 -0.402653 -0.0638048  0.0495672
-0.177778  -0.10291 0.0904909
-0.386851  0.101079 0.0558882
 0.261881  0.153839 0.0630808
0.00240751   0.128599   0.127171
-0.0620685  -0.142063  0.0495381
 -0.146009  -0.132141 0.00314353
  0.406903 -0.0457801 -0.0473207
-0.360645  0.126528 0.0311378
 -0.143351 -0.0957213  -0.119244
 0.312074 -0.146673 0.0723756
-0.0827441  -0.137023 -0.0102436
 0.197076 -0.147096 0.0497256
 0.288414 -0.138898   0.11936
 -0.41355 0.0699472 0.0917802
  0.401694 -0.0620186 -0.0118468
 0.321339  0.145515 0.0743106
  0.425289 -0.0174171 -0.0996021
  -0.26026  -0.153435 -0.0723216
 -0.263699  -0.153607 0.00833017
 0.235085  0.153607 0.0210918
  0.229978  -0.151704 -0.0588162
 -0.124894 -0.0243761 0.00297206
 0.198425  -0.14779 0.0758867
 -0.357697  -0.129488 -0.0606126
 0.274713  0.153036 -0.037261
-0.315066 -0.147996 0.0770815
   0.142497   -0.131388 -0.00121711
  0.350782   0.143675 -0.0866652
  -0.329641    0.141661 -0.00856228
 0.127086 0.0177606 -0.107406
 0.124964 0.0849614 0.0557929
  0.387568 -0.0987767  0.0119873
-0.366669 0.0512713 0.0991802
 0.172594 -0.143527 0.0184431
0.0498786  0.147724  0.108955
 -0.220159  -0.137974 -0.0639693
  0.409872 -0.0882884 -0.0633899
   0.289167 -0.00629865  -0.0240973
  0.124968 -0.0975991  0.0531727
  0.345442  -0.135701 -0.0351398
 0.206924   0.14293 -0.107154
  0.409567 -0.0350629 0.00934572
   0.34702   0.134944 0.00350717
 0.396807 0.0940444  0.051451
  0.124792  0.0326085 -0.0919552
-0.0998223   0.131742  0.0226857
   0.34656   0.135205 -0.0280403
  0.39779 -0.121153 0.0157246
  0.37375  0.117261 0.0261641
 -0.330673   0.146212 -0.0996478
  -0.126076 -0.00490828  -0.0864909
 0.175419 -0.142666 0.0341972
   0.36907    -0.1214 -0.0160224
    0.3738  -0.116968 -0.0886786
-0.0145001  -0.146396   0.035497
  0.140888  -0.132149 -0.0919731
-0.0479072   0.142017   0.111923
   0.23878  -0.152893 -0.0271248
 0.213763  0.151165 0.0881889
 -0.33976  0.139054 -0.059762
-0.139001  0.142977  0.104206
-0.0119543  -0.145967   0.116574
-0.0162823   0.146012   0.110214
0.0123929 -0.144832 0.0347987
   -0.1382 -0.0661717  0.0981249
  0.379759   0.110791 -0.0353868
 0.322084   0.14535 0.0751718
  0.281397   0.152575 -0.0316594
0.00418765  -0.146454 -0.0206723
 0.051799  0.142062 0.0629345
 -0.398551 -0.0758442  -0.035123
 -0.18696  0.145142 0.0377093
-0.239884  0.151896  0.108454
 0.410766  0.029451 0.0170835
  0.220422   0.151206 -0.0463461
  0.124569 -0.0636438  0.0301274
-0.335284  0.141406 0.0805993
 -0.388084 -0.0147649 -0.0857392
 0.223873 -0.150413 0.0156407
-0.0532851   0.143494 -0.0587379
 -0.386273  -0.101264 0.00551478
 -0.335744   0.140362 -0.0671739
-0.237639  0.152592 0.0228088
-0.317626  0.145492 0.0449912
-0.0305696  -0.145379  0.0484837
 0.420783 0.0526247 0.0944052
    0.42763 -0.00142003    0.105239
0.126926 0.031441 0.132636
  0.388055 -0.0896973   0.107029
 -0.397747 -0.0762893 -0.0182134
 -0.118732 -0.0138715  -0.126681
   0.28653   0.160246 -0.0881487
-0.393892 -0.012223 -0.121686
 0.381759 -0.110256 -0.109066
 -0.175298 -0.0985557    0.11707
-0.0377965  -0.144264  0.0432397
 0.214042  -0.14869 0.0224797
  0.418206   -0.04281 -0.0941925
 0.132036 -0.140532 -0.107469
 -0.251444  -0.152797 -0.0393352
-0.285744    -0.152 0.0255898
  -0.12627 -0.0278485 -0.0839133
 0.264068 -0.134474  0.116789
  -0.0645   0.14116 -0.069684
-0.365086 -0.124274 0.0532734
-0.236219 -0.143968 -0.119727
  0.100115 -0.0792103  0.0957773
 -0.124413 -0.0824598   0.070104
  0.384353  -0.129446 -0.0826497
-0.204855  -0.14765   0.03122
  0.123405 0.00183354 -0.0777433
-0.127444 0.0876974 0.0053458
-0.129606 0.0118225  -0.12242
-0.0966978  -0.133692 -0.0343484
-0.285873 -0.152731 0.0832892
 0.118905 -0.124449 0.0502559
-0.235432 -0.146261  0.104158
 0.273467  0.127615 -0.112624
  0.410749 -0.0313472  0.0225141
 0.347129   0.10484 -0.108855
 -0.189919   0.145255 -0.0711224
-0.227585  0.133192 -0.111403
-0.412943 0.0030601 0.0640034
 -0.387854 -0.0980939 -0.0275228
  0.430588  0.0197807 -0.0955088
 -0.359458 -0.0826786   0.075662
   0.3887 0.0893205 0.0945187
 0.281834  0.153264 0.0446448
  0.421879 -0.0269501   0.081774
 0.190679  0.145364 0.0384551
  0.394507 -0.0864293 -0.0334347
   0.201918    0.147845 -0.00481807
  0.124464 -0.0702294  0.0659952
 0.330033 -0.120902 -0.108318
-0.119677 -0.124886 0.0121459
  0.33056 -0.106951 0.0778754
  0.363776  -0.124851 -0.0141966
 -0.389746 -0.0950885 -0.0371591
 -0.252726   0.153648 -0.0815594
-0.272807  0.148486 -0.118626
 0.344329 -0.107125  0.115036
-0.393443 0.0881262  0.026319
  0.125358 -0.0355576  0.0505649
-0.0967238  -0.132382  0.0300132
  0.125321 -0.0968948 -0.0581264
-0.0416193  -0.145215 0.00223025
-0.343126 -0.137602 -0.061967
 0.290458  0.123807 0.0992038
 -0.369234 -0.0542972  -0.108722
-0.0843533  -0.136802 -0.0298249
 -0.393046   0.091708 -0.0704467
  0.123334 -0.0476295 -0.0455897
-0.144387  0.132172 0.0171726
-0.0172289  -0.142786  -0.117209
  0.179115   0.143934 -0.0189507
-0.216663  0.141689  -0.12499
0.0799064 -0.137062 0.0663443
  -0.29609   0.149868 -0.0406901
  0.124983   0.107197 0.00119055
-0.159285  0.136971 0.0595001
 -0.128009  0.0381433 -0.0281518
-0.385426 -0.102584 -0.054804
  0.298748    0.14995 -0.0221042
 -0.403123  0.0653405 -0.0658213
 0.107137 0.0779714 -0.117821
  0.396445 -0.0775921 -0.0120621
 -0.126836  0.0266747 -0.0837416
 0.173403  0.139665 0.0475869
0.00477211  -0.142363  -0.118703
 0.125769 0.0380728 -0.100057
  0.124519 0.00321292 -0.0441619
  -0.420892 -0.00432321  -0.0636086
 -0.397141 -0.0788915 -0.0409346
 -0.407568 -0.0460798 -0.0408353
 -0.188013   0.145922 0.00750536
-0.246261  0.134884 -0.118078
 -0.163257 -0.0843715   0.114732
-0.185715    0.1263  0.123108
  0.296428  -0.150713 -0.0435435
  0.20008 -0.148036  0.038924
-0.0543306  -0.130291   0.118351
-0.384743  0.103666 0.0022104
 0.246761  0.154017 0.0889302
-0.124878   0.11326 0.0498129
-0.306981 -0.148396 -0.113727
-0.306442  0.148679 0.0228201
-0.371807 0.0598829 0.0690151
  0.407072  -0.045226 -0.0405886
 0.174623  -0.14279 0.0312669
 0.0911105  -0.135661 -0.0973806
-0.264677 -0.143041 0.0327805
 0.259201 -0.153243  0.114905
-0.244263  0.152371  0.108965
-0.231991  -0.14784  0.113456
-0.336227 -0.139568 0.0423874
  0.199251   0.147815 -0.0563639
0.079671 0.134413 0.117186
 -0.406126 -0.0539082  -0.055229
 -0.132149 -0.0353801   0.127327
  0.411529 -0.0138173  0.0951047
 -0.128977 -0.0246848  -0.123495
 0.251903 -0.152503 0.0670365
   -0.14749    0.133431 -0.00143698
 0.316486  0.142544 -0.113822
  0.410041  0.0337399 -0.0516104
  0.102006   0.132632 -0.0386959
  -0.16088  -0.137983 -0.0048682
0.00145202  -0.136331   0.125465
   0.40639  0.0512573 -0.0531344
 0.345391 -0.136218 0.0382619
  0.381822 -0.0348089   0.120689
-0.0887503  -0.135017  0.0421922
 0.421092 0.0102016 0.0723527
  -0.26718   0.152399 -0.0191142
   0.13286   0.128173 -0.0322997
 -0.165132  -0.138823 -0.0575372
  0.124702 -0.0817514 -0.0345343
 0.314141 -0.147217 -0.104632
 0.179985  0.143393 0.0668294
 0.113763 -0.122646 0.0926346
  0.39269   0.10301 0.0797893
  0.375297  -0.113842 -0.0825044
   0.36508  -0.124841 -0.0931407
-0.101414 -0.132501 0.0682918
  0.15033  0.132409 0.0894769
  0.225161   0.151535 -0.0632535
-0.0610481  -0.141926  0.0833932
  0.212636  -0.138201 -0.0695738
  0.12426 -0.020122 0.0533392
-0.0879407  -0.152126  0.0796432
 0.156774 -0.137768 0.0126067
-0.256829 -0.150243  0.110829
 -0.170787  0.0974175 -0.0868025
-0.122397 -0.137393 0.0744599
    0.37646   -0.114236 0.000245316
 -0.125101 -0.0318233  0.0088694
 -0.401492 -0.0881557 -0.0505371
-0.137716  0.145473  0.102245
 -0.362974  -0.126081 0.00644141
 -0.400404  -0.120426 -0.0211458
 0.122083 0.0209274 0.0321816
 -0.084474  -0.120938 -0.0741328
 0.190383 -0.105688 0.0999818
-0.216914 -0.150511 0.0641172
-0.361347 0.0822869   0.10636
   0.21108   0.149957 -0.0567267
-0.394719 -0.086034 0.0481062
  0.400992 -0.0706117 -0.0315197
 -0.100099   0.132914 -0.0423241
  0.124786   -0.11559 0.00318854
 0.192855  0.147203 0.0059992
-0.0351454    -0.1449  0.0131768
  0.395512 -0.0820657 0.00971286
  0.285709   0.152205 -0.0546353
 0.118772 0.0525488  0.120822
0.0662659 -0.111547  0.117449
-0.059751 -0.140272  0.123142
-0.395337  0.107274 0.0812456
-0.0726035   0.139114 -0.0402727
-0.216072 -0.150275 0.0971808
 -0.408803 -0.0388853  0.0407148
 0.108634 -0.143418  0.105133
-0.0632469  -0.140539 -0.0406758
  0.389459 -0.0963266 -0.0316983
 0.125504 0.0503559 0.0997329
 0.279326 -0.152769  0.055468
 0.142228 0.0643028  0.108684
  0.399901 -0.0733872  0.0550841
-0.167117  0.111742  0.112436
 0.351877  -0.13254 0.0134568
 -0.388892  -0.118658 -0.0223207
  0.197796  -0.147088 -0.0477215
 0.321711  0.144537 0.0319831
  0.124958  -0.118274 -0.0220248
 -0.370578  0.0549907 -0.0739649
  0.398664   0.107308 -0.0689814
 -0.401428  0.0696208 -0.0794733
 -0.35082  0.134017 0.0666341
 -0.345733  -0.137078 -0.0796287
0.0776794  0.135383  0.116087
   -0.1243 -0.0527613   0.091538
-0.218864  0.144939 -0.121456
 0.406806 0.0476363 0.0437538
 -0.125379 -0.0210134   0.082218
-0.323016  0.145945 0.0985087
-0.379154 -0.110661 0.0372099
 0.395942  0.114781 0.0568287
 0.232418 -0.137086 -0.102473
-0.0113457   0.146739 -0.0794601
  0.324211   0.144344 -0.0473153
  0.406595  0.0388501 -0.0246122
 -0.114789 -0.0545183   0.120284
 0.370244 -0.121088 -0.092396
 0.392553 0.0825077  0.102914
   0.41084 -0.0254769  0.0285874
 0.364562  0.124342 0.0140719
   0.12212 -0.0447399   0.127719
  0.409817  0.0338559 0.00656653
  0.305577   0.148269 -0.0130323
   0.26966  -0.153244 -0.0527399
 0.280449 -0.149972 -0.117873
  -0.410413 -0.00682664    0.101732
  -0.412129 -0.00682538  -0.0443808
  0.349682   0.132822 -0.0114617
  -0.125394 -0.00504711   0.0659177
  0.209826    0.14896 -0.0131401
 0.265121  0.153641 0.0704088
  0.257037  -0.152258 -0.0952165
 -0.403473 -0.0642273 -0.0878849
-0.0930739  -0.124402   0.108363
-0.408406 0.0251451 0.0292943
0.0539936  0.119458  0.123754
-0.204009 -0.134879 -0.116128
  -0.12411 -0.0629189  0.0822963
-0.157159 -0.136255 -0.068328
  0.395917 -0.0817702  -0.025029
-0.0149613  -0.145664  0.0909067
  0.121801   -0.12547 -0.0239951
  0.213917   0.150388 -0.0288711
-0.196388 -0.141179  0.122575
-0.219291  0.150158 -0.058076
 -0.124801 -0.0749569  0.0203922
 -0.319323  -0.129048 -0.0622566
-0.128875 -0.010704  0.116411
 -0.12734 0.0925837 0.0128741
   -0.12373 -0.00805633  -0.0176553
  -0.268033   -0.153345 -0.00323524
 0.0848179   0.136164 -0.0333901
  0.379308  -0.110438 -0.0149806
-0.252446 -0.135366 0.0685242
0.0354819 -0.145386 0.0160173
  0.401068  0.0789969 -0.0666871
  0.127143  -0.128137 -0.0875962
  0.409416 -0.0406036  0.0267649
-0.0537209   0.141395   0.109795
-0.00816524   -0.146448  -0.0726835
 -0.11368 -0.139256 0.0725679
  -0.234802    -0.15204 -0.00697675
 -0.410169 -0.0309165  0.0433023
 0.0973813  -0.144627 -0.0985075
   0.123462  -0.0219856 -0.00821832
  -0.13169   0.134227 -0.0926613
  -0.412104 -0.00951599   -0.037095
-0.326559  0.143324 0.0911742
  0.124241  0.0194271 -0.0487577
 -0.138196  -0.124647 -0.0922889
0.0613807  0.140972 0.0428671
  0.374428   0.137679 -0.0989724
 0.373313  0.117987 0.0216015
 0.0557295  -0.142888 -0.0468999
  0.425171  0.0505969 -0.0845748
  -0.411947 -0.00256079   0.0269898
 0.400903 0.0687636 0.0104326
  0.32139   0.14505 0.0482494
-0.29174 0.133489 0.117764
 0.181613   0.12272 -0.117306
 0.145236 -0.122705  0.111944
 -0.383111 -0.0510884  -0.122815
  0.420572   0.069986 -0.0838706
-0.0088722  -0.144654  -0.120081
-0.0559174   0.148695    0.10457
  0.406634  -0.104222 0.00963043
   0.350059   -0.133433 -0.00650057
 0.400915  0.067892 0.0160701
  0.291767  -0.151459 -0.0362886
  0.350633   0.133652 -0.0479587
  0.124862  -0.117359 -0.0406372
   0.332962    0.141014 -0.00607259
 -0.35442 -0.132205 0.0700681
  0.124267 -0.0106159  -0.128662
   0.12509 -0.0855392  0.0136792
   0.41723 -0.0608916  0.0973786
-0.136161 -0.127927 0.0202174
   0.41144  0.0238434 -0.0540938
0.0561512  0.142117  0.076126
-0.0282985   0.144394  0.0455704
 -0.125675 -0.0527519 -0.0385427
  0.156726  -0.136575 -0.0293187
  0.34109  0.126104 0.0374795
 -0.123259 -0.0250884   0.108311
 -0.371281   0.119353 -0.0301259
 -0.370887 -0.0586442  0.0783115
0.0615702  0.143976  0.105108
 -0.420933 -0.0403084  0.0984009
   0.41062  0.0211803 -0.0381756
 -0.124964 -0.0274576 -0.0546553
-0.414362 0.0311839  0.081686
-0.272505  0.147547 0.0486632
  0.280516   0.152256 -0.0505261
 0.0985195  -0.135064 -0.0941733
-0.0432357  -0.144899 -0.0502065
  0.110675 -0.0645514   0.118112
 -0.131479 -0.0266174   0.106436
-0.183834  0.144589 0.0246184
0.104133 0.152407 0.115981
 -0.411169 -0.0272148 -0.0523714
 -0.368405  0.0502935 -0.0477204
 0.119073 -0.123146 0.0856849
 0.114154 -0.125709   0.04997
   -0.4122  0.0646594 -0.0844944
-0.350199  0.111906  0.102283
 -0.175095  -0.141655 -0.0640199
-0.347042  0.134517 0.0365451
-0.0724959  -0.107208  -0.123983
 0.129952 -0.126366 0.0160977
-0.192219 -0.151703  0.101384
  0.125764 0.00446948  -0.106013
-0.0311404  -0.144247 -0.0813431
 0.141362 -0.141493 -0.100068
 0.392577  0.119722 0.0463586
  0.112694  -0.143058 -0.0839959
-0.399368 0.0738408 0.0603519
 0.0563001   -0.14195 -0.0100539
 0.290515   0.15258 0.0465478
 0.0925334  -0.133687 -0.0672687
  0.146538  -0.132662 -0.0114227
-0.383164   0.10685 0.0226921
   -0.3567   0.129227 -0.0347971
-0.393765 0.0919511  -0.04379
  -0.14152 -0.0593184  -0.115344
0.274858 0.153872 0.051537
  0.379813  -0.110732 -0.0659082
 0.0355885    0.14411 -0.0746177
 -0.124437 -0.0865515  0.0145824
-0.280742  0.152905 0.0919196
 -0.124829 -0.0973426 -0.0603437
 -0.124855   0.117724 -0.0872397
  0.409546 -0.0133841 -0.0395336
 0.123717 -0.123432 0.0562538
0.0904177  0.134294 0.0463449
  0.115773 -0.0358721   0.111137
 0.0732721  -0.138916 -0.0628819
 0.114603 0.0627104 -0.116817
 0.171516  0.140363 0.0579306
  0.22632  0.163469 -0.109415
  -0.239844    0.152708 -0.00124802
 0.124687 0.0866195 0.0696356
-0.15145 0.134288 0.025347
   0.199563   -0.148149 0.000359281
  0.128145 -0.0949823   -0.10462
  0.125223 -0.0040264  -0.116866
 0.336195  0.115918 -0.112644
  0.409854  0.0301578 -0.0936111
  -0.37925 -0.0902029   0.119857
-0.00314073   -0.146909  -0.0638454
0.0480087 -0.146685  0.109542
 -0.186177   0.143714 -0.0356119
  0.313076   0.146953 -0.0395868
-0.143175 -0.123105 -0.101929
-0.145907  0.132273 0.0548869
 0.322734 -0.145856 0.0819828
 0.123554  0.108688 0.0164275
  0.41772 0.0443088  0.100967
-0.141196 -0.129544 0.0196373
-0.238675  0.153417  0.102749
  -0.35256   0.131253 -0.0874868
-0.310407 -0.149151 0.0915674
-0.174773  0.141898 0.0968067
 0.167318  0.139047 0.0595971
-0.0186429   -0.14622  0.0501459
 -0.405658 -0.0860792  0.0608801
 -0.125267 -0.0314009  0.0144398
  0.411946  0.0121207 0.00231455
 -0.388429 -0.0982003   0.045032
-0.119501 0.0431271 0.0970609
 0.420777 0.0608979 0.0941422
 0.384599  0.103178 0.0230154
 0.407852 0.0393635 0.0951866
  0.395768 -0.0820845  0.0325309
 -0.045869   0.144094 -0.0077007
 -0.361582 -0.0791443   0.105184
 0.409346 0.0359642 0.0284079
 -0.148503  -0.154725 -0.0839167
 -0.266677  -0.153938 -0.0953937
-0.308268  0.148325 0.0650902
-0.192753 -0.145757 0.0674405
   0.406532  -0.0490651 0.000550008
 -0.155963   0.135856 -0.0240438
-0.405696  0.053204 0.0607567
0.0726464 -0.138786  0.101664
  -0.124545 -0.00801005   -0.097537
 -0.414903 0.00960115 -0.0898941
-0.0943037  -0.134655 -0.0766291
   0.401595   0.0673653 -0.00122443
 0.307326 -0.121276 0.0845292
  0.399518 -0.0739626  0.0562086
 0.328499 -0.142984 0.0596991
0.0245416  0.145703  0.065011
-0.231935 -0.152279 0.0816378
-0.304731 -0.151669 -0.102866
 -0.333419  -0.142189 -0.0833982
 -0.124334 -0.0550067 -0.0210826
-0.124138  0.124103 0.0215016
 0.387871 0.0913142 -0.111144
 0.0208305   0.146324 -0.0740037
-0.195433   0.14638 0.0611983
0.376678 0.115119 0.069641
  0.412069 -0.0124096 -0.0993147
 0.240837 -0.153789 0.0961257
 0.401654 0.0662001 0.0119233
 -0.172472   0.141181 -0.0284987
-0.370643  0.119836 0.0351201
  0.411432 -0.0155081 -0.0984065
-0.0100354   0.147305 -0.0515122
   0.24056   0.152743 -0.0462035
  0.405048 -0.0989528 0.00597242
 0.272751 -0.153143 -0.036184
  0.161239   0.138351 0.00393152
 0.0790554  -0.137969 -0.0213451
-0.337913  0.138274 0.0354097
 0.330446  0.142095 0.0207883
 0.203643    0.1486 0.0068018
 -0.378355 -0.0763875   0.067125
 -0.361709   0.127259 -0.0618346
-0.0530934  -0.142767  0.0350015
 -0.308056  -0.136028 -0.0553082
-0.367348  0.122636 0.0920266
 -0.117632   0.126015 -0.0506277
  -0.30251   0.148307 -0.0309368
 -0.407351 -0.0382552  0.0213398
-0.0180159   0.157195  -0.124449
-0.351949 -0.108431  0.109435
  0.179305  -0.141483 -0.0674797
 0.365223  0.124434 0.0634896
-0.0177325   0.144701  0.0490754
  0.26311  0.152561 0.0316978
 -0.408201 -0.0463174 -0.0630095
  0.125288 -0.0691579 -0.0614161
  0.355771   0.131043 -0.0385507
-0.0994781 -0.0969587   0.088673
  0.406913  0.0443751 -0.0436156
  0.218051  -0.152365 -0.0449344
 -0.164207   0.138679 -0.0534728
-0.00898716   -0.146495   0.0326559
 0.259182 -0.152633  0.050747
  0.341033  -0.138245 -0.0475935
-0.110564 0.0771004  0.113528
  -0.28521   0.150948 -0.0224389
  -0.11272  -0.127656 -0.0888594
-0.297071  0.150646 0.0648564
  0.411428  0.0137761 -0.0438951
 -0.390178 -0.0961248  0.0890129
 -0.344878   0.137421 -0.0896807
0.00957657   -0.14576  -0.034354
 0.0832263  -0.137179 -0.0459492
 -0.143569  -0.130836 -0.0618499
  0.386253   0.100135 -0.0109074
  0.155431   0.136349 -0.0236924
 0.310851 -0.147644 0.0491875
-0.117597 0.0336215  0.131613
-0.366995 -0.100714 -0.116405
  0.281081   0.151676 -0.0142111
 -0.193868   0.146484 -0.0165996
0.191674 0.138167 -0.12155
 0.404342 0.0560254 0.0356357
   0.381149 -0.00187592   -0.092738
  0.402417 -0.0642156  0.0272541
   0.124955   0.0511192 -0.00989391
 0.385105 0.0895654 0.0993451
  0.299001   0.150011 -0.0254276
 -0.361478    0.12686 -0.0573739
-0.378766 -0.111927 0.0213509
-0.0405212   0.150254  -0.115906
 -0.208364   0.149479 -0.0153698
  -0.411812 -0.00553195   0.0481324
 0.346952  0.101453 -0.108278
-0.0902823   -0.10275  -0.117052
-0.405797 0.0394428 0.0223523
-0.328585  0.142676 0.0222144
 -0.13512  0.128312 -0.022842
 -0.224234  -0.134533 -0.0662327
  -0.400628  -0.0679622 -0.00555255
 0.224701 -0.133689 -0.108128
  0.415335  0.0975265 -0.0885667
-0.313007  0.147547  0.107484
0.0321161 -0.134333 -0.125348
  0.40824 0.0446319 0.0211033
0.0732102  0.146333  0.104698
 0.19824 0.147343 0.100714
  0.355955   0.131023 -0.0569695
  -0.410005 -0.00749254   0.0105336
  0.0447852    0.143311 -0.00822673
  -0.409122  -0.0337125 -0.00738199
 -0.159165 -0.0974676  0.0809121
-0.269866  0.153665 0.0109197
  0.284051   0.151687 -0.0773518
 0.246114  0.153008 0.0595999
-0.125797 0.0695251 0.0462196
  0.389255 -0.0957164  0.0841278
-0.411006 0.0304526 0.0580591
   0.411903 0.000322039   0.0155471
 -0.124504 -0.0232275 -0.0050011
 -0.37972 -0.110598  0.040108
  0.372363 -0.0563089  0.0880124
 0.367391 -0.123175 0.0859989
-0.318743  0.136113 0.0584362
 0.124958 0.0772646 0.0575444
 -0.134095  0.0954489 -0.0401313
-0.0555554   0.142616 -0.0654679
 -0.176532  -0.142569 -0.0236268
 -0.174998  -0.147108 -0.0786094
 0.387542  0.098001 0.0897592
 -0.414278 -0.0326151  -0.089822
-0.193971  0.145323 -0.108762
 0.112579 0.0630629 -0.117972
-0.101784  -0.13149 0.0370442
  0.396839 -0.0930869  0.0603333
-0.276972  0.152901 0.0714632
 -0.375587  -0.122441 -0.0395815
  0.401446  0.0687217 -0.0324301
 -0.408858 -0.0348456  0.0327423
-0.0665151  -0.140834   0.075538
  0.386576   0.121685 -0.0904754
  -0.409924 -0.00592038  0.00568262
-0.161926 -0.103713  0.126174
-0.310655   0.14748 -0.051417
0.0702852 -0.139679 0.0645176
 0.355735 -0.131282 -0.063951
0.0442723  0.155007 -0.113811
 0.226191   0.16066 -0.112878
 -0.125812 -0.0815968  0.0433865
-0.223277  0.162491 0.0866396
-0.182371 -0.142158  0.111244
  -0.262651    0.152476 -0.00755582
-0.369845  0.118969 0.0943578
 -0.371132 -0.0793809  0.0722477
-0.196838  0.146358 0.0890201
0.343808 0.137214 -0.06652
-0.387348  0.100463 0.0622163
-0.291114  0.152719  0.107115
  -0.352745   -0.131115 -0.00335232
 0.411029 0.0247984 0.0212547
-0.356666  0.130285  0.106141
-0.00238705    0.146306  -0.0713266
 -0.379894  -0.110873 -0.0415894
  0.177952  -0.142817 -0.0162554
  0.036684  -0.144852 0.00734951
0.0237666   0.14588 0.0856191
  0.205671   0.149068 -0.0395468
-0.159757   0.13658  0.028714
-0.0548043   0.150951 -0.0865113
-0.211211  0.149539 0.0445225
  0.158028   0.137876 -0.0502396
  -0.27449   0.152972 -0.0511405
  -0.25772   0.153907 -0.0825761
-0.240326  0.150368 -0.119136
-0.334125  0.155274 0.0722148
  0.124134 -0.0402493 -0.0160652
-0.354594 -0.131259 0.0270602
 0.379926  0.110015 0.0880892
  0.400942 -0.0701406 -0.0491673
 -0.0694881    0.140631 -0.00144879
 -0.400274  0.0719161 -0.0808632
0.0747871  0.138908 0.0311725
-0.226776  0.152225 0.0290591
 0.300339 -0.150786 0.0813764
 0.406274 0.0303772   0.10315
 -0.381479  -0.107478 -0.0156679
  0.165847  -0.139026 -0.0442054
  0.390068 -0.0947563 -0.0252531
 -0.401566  0.0695516 -0.0521375
 -0.314974   0.145817 -0.0630267
0.207615 0.160259 -0.11519
 0.243174 -0.152599 0.0488869
-0.0961159   0.115002  0.0809555
 0.044496 -0.145793 0.0283107
  0.411484 0.00752554  0.0385366
  0.124884 -0.0210788  -0.103908
 0.0312481  -0.145585 -0.0750379
 -0.122504  -0.124492 -0.0546282
0.0432104  0.143547 0.0543096
 -0.354584  -0.130923 0.00193394
  -0.250797 -0.00356265  -0.0149602
   0.405237  -0.0515927 -0.00788538
-0.252956 -0.157994  0.107554
 -0.309762   0.148068 0.00536776
  -0.39781 -0.0767921 -0.0883051
 -0.292054   0.151871 -0.0696442
    0.2505   0.152651 -0.0182959
 0.353283  0.131427 0.0350594
   0.360667   -0.127339 -0.00144981
 0.395748 0.0766003 0.0544001
0.185019 0.114388 0.125756
 -0.312002   -0.13689 -0.0600509
 0.126787 0.0131485 -0.123047
-0.0493688  -0.142999 -0.0373148
   0.153524   -0.135811 -0.00550374
 -0.140951   0.132835 -0.0964104
-0.331496  0.148405  -0.10215
 -0.40368 0.0556749  0.027122
0.0991793  0.132982 0.0248763
 0.182253 -0.106828 -0.126189
 0.327505 -0.144395 0.0913481
  0.218228  -0.150966 -0.0936266
-0.205838 -0.148087  0.104696
  0.232461  -0.151994 -0.0250914
   0.387253  -0.0992908 -0.00179246
 0.256619 -0.152173    0.1139
0.0132586  0.124172 -0.105283
  0.410945 -0.0260969  0.0532316
 0.303848  0.149762 0.0630147
-0.0618719   0.140931  0.0657529
  0.124359  0.0544719 -0.0582297
 -0.128898   0.110134 -0.0961447
   -0.12457 -0.00257958   0.0818564
 0.169801 -0.121659 0.0674204
 0.104152 -0.128399 0.0572749
 0.229255 -0.151714 -0.108724
  0.274289   0.153202 -0.0630762
  0.122051  -0.123685 -0.0565171
 0.188523  0.147063 0.0200287
-0.287696  0.150933 0.0571051
 0.400747 0.0315103  0.109634
  -0.388042   0.0960574 -0.00390741
 -0.377031  -0.114031 -0.0578873
 -0.129932 -0.0277085 -0.0939602
  0.405015  0.0672672 -0.0917797
-0.250777  0.152867 0.0604951
 -0.137793  -0.135414 -0.0937064
  0.389658 -0.0937078  0.0401505
-0.125285 0.0908314 0.0613208
0.353393 0.129946   0.1169
 -0.125554 -0.0505662 -0.0731081
 -0.033922  -0.144664 -0.0182644
0.0492737  0.142523 0.0336857
 0.257664 -0.153255  -0.07304
 0.315741  0.147723 0.0912203
 -0.37428 -0.106059  0.106952
-0.122938  0.057517 0.0960382
 0.385801  0.102156 0.0105328
 -0.123692  0.0557919 -0.0897738
  0.403195 -0.0957723  -0.052433
 -0.125621 -0.0262875 -0.0789605
 0.157757 -0.107874  0.122868
-0.0244336  -0.145545 -0.0377433
-0.237523  0.152735  0.026321
 0.121487  0.125121 -0.078162
 -0.402902  -0.109334 -0.0745311
-0.181109 -0.142812 0.0799008
 -0.20151 -0.148221 0.0222679
 0.197208 -0.153843  0.105348
 -0.341493   0.137032 -0.0170315
 -0.417857 -0.0703737 -0.0991093
-0.379608 0.0687695 -0.114449
-0.384046  0.105862 0.0147803
-0.032562  0.144445 0.0479053
  0.0757241   -0.138912 -0.00352104
-0.00268611   -0.138045  -0.0880202
  0.394421 -0.0852531 0.00905401
-0.408297 0.0783444 0.0841818
   0.18992   0.145828 -0.0308822
 0.270204  -0.15311 0.0665194
  0.408376   0.048381 -0.0916038
0.0229648 -0.141563 -0.119863
-0.224899  0.150531  0.102067
  0.365556   0.123737 -0.0191684
-0.0744199  -0.138922 -0.0527025
  0.407771 -0.0466725 -0.0541107
  0.411589 -0.0141342  0.0208812
-0.320546  0.143397 0.0559219
-0.125126 0.0524361 0.0366823
-0.0183759   0.146403 -0.0394135
 -0.406412  0.0478671 -0.0125394
  0.120907  -0.134075 -0.0953692
-0.0331862   0.144807  -0.074997
0.326044 0.129443 0.104636
-0.349521 -0.135095 0.0786418
-0.0535564  -0.115482  0.0986604
0.0749205  0.137662   0.10183
0.00440601   0.146516  0.0720411
  0.212006   0.150352 -0.0501725
 0.310439 -0.153553 0.0898444
 -0.0156947    0.145126 -0.00711438
 -0.391003 -0.0933342  -0.044197
 0.312983 -0.146814  0.061048
  0.415888 -0.0674984  0.0970567
  0.124368 -0.0373601 -0.0236505
 0.372728  0.118035 0.0338589
-0.39187 0.091196 0.103226
 0.369938 -0.121041 -0.047239
  -0.266273    0.151914 -0.00978579
0.00691755   0.137836  0.0874808
-0.118791 -0.126441  0.060681
-0.142746 -0.068255  -0.11373
 -0.137974 -0.0915408  -0.112728
-0.125115 -0.015058 0.0368883
-0.407601 0.0987768  0.078419
 0.389118 -0.113015 0.0570176
   0.12475 -0.0577552  0.0314917
 -0.363657   0.140478 -0.0787988
-0.199899 -0.147408 0.0695067
-0.120235 -0.125455 0.0533024
-0.120856 0.0175471  0.103996
  0.207571  -0.135534 -0.0682251
 -0.162564 -0.0853847   0.114959
-0.145994  0.131746  0.081676
 -0.409778  0.0390736 -0.0709105
0.330892 0.121738 0.067128
0.364476 0.118277  0.10751
 0.167082 -0.140054 0.0750812
  0.242167  -0.152827 -0.0498586
    0.2489   -0.15257 -0.0871408
-0.210156  0.149142 0.0671362
  -0.228938   -0.150719 -0.00201513
-0.0622236  -0.141541  0.0791409
 0.220728 -0.149416 -0.113099
-0.370821 -0.120337 0.0553315
 -0.125637  -0.107686 -0.0396792
-0.0809114   0.136443  0.0568795
 0.318113  0.139757 -0.116468
  0.409959  0.0169801 -0.0217645
  0.391976  0.0897376 -0.0172646
-0.164129 -0.138032 -0.050965
0.143933 0.139385    0.109
-0.310197 -0.149541  0.106062
 -0.124967 -0.0276007 0.00556383
-0.184694  0.144314 0.0568019
  0.340158  -0.139287 -0.0646258
  0.393771 -0.0851549 -0.0133483
 -0.122974 -0.0148556 -0.0230699
-0.0352194   0.141156  -0.115103
 0.337453  0.139788 0.0895922
-0.0804704   0.109359   0.118778
 0.262237  0.153936 -0.107089
 0.287412  -0.15155 0.0784979
-0.417746 0.0546594 0.0936599
-0.408451 0.0455033 0.0671797
   0.1249 -0.124319 0.0074701
-0.375713 -0.115026  0.024505
  0.055622   0.142846 0.00779479
 -0.231127  -0.151714 -0.0905975
  -0.322334    0.144307 -0.00934138
 -0.411553  0.0675936 -0.0873655
  0.396784 -0.0790577  0.0201537
-0.215237 -0.150436 0.0538355
-0.0230892   0.146997  0.0289639
 -0.129237 -0.0246776  -0.126278
-0.135089 0.0405325 0.0398446
0.334199 0.133572 0.098244
-0.352195 -0.133034 0.0484976
  0.198174  -0.147026 -0.0391157
 0.256003  0.152932 -0.022413
  0.247437   0.151949 0.00731114
-0.131543 -0.023989  0.134671
-0.0641889  -0.140994  0.0582248
  -0.412399 -0.00769321   0.0584529
-0.323769 -0.145368 0.0864941
-0.299744  0.143054 0.0524324
-0.0614721  -0.141549 -0.0476028
 0.283253  0.157453 -0.087275
-0.155888  0.131117  0.102125
 0.368586 -0.121823 0.0191957
 0.238251 -0.152435 0.0789827
  -0.125534   0.0182135 -0.00524236
 -0.23397  -0.14949 -0.112244
  0.124505  0.0371837 -0.0188688
-0.0445972   0.143627  0.0354576
  0.405626   -0.08468 -0.0792277
 0.114748 0.0791039 0.0885786
    0.411574 -0.000827732    -0.041489
-0.306182  0.150059 0.0817574
  0.276827  -0.153175 -0.0492593
 0.364145  0.124477 0.0381866
 -0.124584 -0.0167793 0.00671793
-0.0555282  -0.140616   0.121807
-0.0827934  -0.128446   0.117582
 -0.395757 -0.0221442  -0.127083
  -0.412586 0.000752747   -0.088389
-0.154411 -0.135499 0.0586453
 -0.411931 -0.0159738  0.0628437
 -0.124569 -0.0248809  0.0166192
 0.316723 -0.147451 -0.029636
  -0.125432 -0.00526356   0.0247098
 0.417874 0.0432826 0.0746129
0.0507631 -0.135233  0.118798
-0.375838 -0.115739 0.0551452
  -0.29523   0.151868 -0.0796333
 0.294795 -0.150623 0.0220411
-0.139725  0.129947 0.0369509
   0.124283 -0.00720464  -0.0989466
0.0755226 -0.149988  0.110896
  0.410257 -0.0935549 -0.0596875
 -0.125126  -0.110891 -0.0202162
 0.110471  0.103937 -0.073498
 0.392198 0.0830957 -0.107758
 0.332046  0.152459 0.0829888
 -0.392448  0.0882489 -0.0167516
-0.280418 -0.153252 0.0879075
   0.0177322     -0.14683 -0.000272933
 -0.06998  0.139102 0.0619278
  0.339461   0.140225 -0.0895844
  0.407583 -0.0317602 -0.0291632
 0.260421   0.13856 -0.081224
  0.401643 -0.0677707 -0.0534747
0.0304326  0.145206 -0.030808
 0.124634  0.073957 0.0642703
  -0.125157    0.120762 0.000187639
  0.409338  0.0188608 -0.0996396
   0.130615   -0.126228 -0.00569446
  0.404267  0.0568109 -0.0450616
-0.059409  0.142011 0.0766165
  -0.18758  -0.145699 -0.0241892
-0.401808 0.0914378 0.0920495
0.0241158  0.145628 0.0656503
 -0.124873 -0.0325824  -0.087856
-0.156896 0.0949197 -0.125299
 0.124639 -0.142956 -0.107067
 0.144605 -0.132757 0.0125475
-0.0575418   0.142426 -0.0335707
 0.281443 -0.153356 -0.107383
-0.0741216  -0.139552  0.0079594
  0.405002 -0.0564622   0.017457
 0.328585  0.143919 0.0893158
-0.215996  0.152227  0.016251
 -0.409751 -0.0302034 -0.0106489
 -0.372557   0.118856 -0.0523404
-0.183146 -0.143369 0.0787761
  0.12728 -0.144762   0.10216
 -0.372783   0.138876 -0.0828114
 0.335349 -0.142142 0.0994011
-0.354298  0.140291 0.0780667
-0.405573 0.0350856 0.0197719
-0.124094 0.0334156 0.0661484
-0.127435  0.153164 -0.104237
  -0.13314 -0.0639721  -0.080597
 -0.393786  0.0854251 -0.0155919
  0.411866 0.00306458 -0.0937005
 -0.384346  -0.104724 0.00466259
  0.410921 -0.0247654 0.00201529
-0.187445    0.1449 0.0813245
  0.351392  -0.133879 -0.0881045
 0.0512446   -0.14294 -0.0746583
 -0.372133  0.0447257 -0.0468391
 -0.42292 0.0721636 -0.016741
 0.119356  0.126099 -0.081238
 0.397559 0.0758589 0.0637645
  0.243539  -0.152758 -0.0985778
  0.340286  -0.139805 -0.0941535
  0.410947 -0.0200854  0.0339639
 -0.330121  -0.143033 -0.0673807
  0.035536  -0.145439 -0.0576433
-0.377409  0.106372  0.111423
0.0108569 -0.146314 0.0512135
 -0.419145 -0.0675494 -0.0855929
 0.204291  0.148868 0.0386813
-0.270552  0.166047 0.0943252
  0.387402 -0.0999668  0.0777719
  0.384601   0.101636 -0.0507588
  0.119747  -0.127495 -0.0858951
  0.36191  0.128281 -0.111464
-0.124255 0.0147694 -0.103806
0.0108066  0.146336 0.0483145
   0.18493  -0.142454 -0.0607713
 -0.157166   0.110753 -0.0505597
 0.0338119  -0.144879 0.00472054
  0.395579 0.00619652  -0.109831
0.182132 0.142404 0.101291
-0.221144   0.15145 0.0945538
   0.36862   0.121056 -0.0363437
 -0.404021  0.0614883 -0.0405399
 0.115962 0.0607074  0.097991
 -0.410981 0.00921246  0.0345605
 0.391239 0.0911358 -0.015704
  0.0898941   -0.135353 -0.00688492
  0.169057  -0.140105 -0.0112055
 -0.410916 -0.0854067 -0.0985699
  0.12275 -0.115817 0.0399749
  0.349429  -0.135141 -0.0754903
-0.0536989    0.14279  0.0504553
-0.399522 0.0692571 0.0183467
  0.150582  -0.133909 -0.0543133
-0.0180138    0.14536  0.0677249
-0.174026 -0.141749 0.0739929
-0.0353337  -0.145743  -0.106451
 -0.382397 -0.0342656  0.0852231
  0.388535  0.0973899 -0.0332992
0.00141004   0.150651 -0.0977382
-0.0232863   -0.14531 -0.0277885
  0.387969 -0.0993955  0.0147008
  0.12759 -0.100206   0.10222
 0.0751127   0.139178 -0.0752061
-0.209647 -0.119248  0.104269
 0.378202 -0.111526 0.0340069
 0.171351  0.140603 0.0977466
  0.125154  0.0918992 -0.0635312
 -0.0816099    0.137325 -0.00636399
 -0.126874 -0.0480106    0.11694
-0.321294  0.145975 0.0710939
  0.118489   0.126136 -0.0354258
-0.00110102   -0.141291  -0.0822634
 0.0646418  -0.141678 -0.0514804
 -0.129012   0.125677 -0.0218113
  -0.40245  0.0635095 -0.0164654
-0.135194  0.119465  0.095046
 -0.124404 0.00814808  0.0786498
   0.124225  -0.0107968 -0.00174552
   0.28392   0.152076 -0.0419034
 0.0180159   0.145773 -0.0746871
-0.117526 -0.044696  0.119916
 0.393505 0.0881063 0.0625337
 0.407828 0.0434673 0.0433924
 -0.399557 -0.0725599  0.0153587
 -0.411014 -0.0253323  0.0596661
  0.272106  -0.153516 0.00303818
-0.257288 -0.153278 0.0919226
-0.405808  0.052975 0.0447479
 0.389591  0.046325 0.0610204
  0.103264   0.130098 -0.0648185
 0.333321  0.142495 -0.075353
 -0.122765 -0.0182658   0.132597
 -0.19891  0.121377 -0.132791
 -0.423619 -0.0137717  0.0758908
-0.0519691    0.12374  -0.116736
  0.255649  -0.152947 -0.0747718
 -0.123507   0.133955 -0.0944741
-0.139007 0.0776482 -0.116309
-0.00718681    0.144692 -0.00545157
-0.373457  -0.11593 0.0868172
-0.401463 -0.066637 0.0112173
-0.281392   -0.1523 0.0276951
  0.384358   0.104407 0.00799263
-0.167777  0.139381 0.0215266
0.0570533  0.145907 -0.102483
 -0.124618 0.00301372  0.0334176
 -0.393703 -0.0108222  0.0904373
 0.123396   0.09767 0.0374863
  0.131061  -0.126656 -0.0189946
  0.149883   0.134592 0.00527262
 0.289171   0.15296 0.0972877
 0.280289  0.153346 0.0834334
 0.334822  0.140953 0.0890885
  0.355386  -0.130924 0.00224011
0.0189108  0.146308 -0.082217
  0.35126  0.132125 -0.009863
  0.379515   0.111038 -0.0443665
 -0.323163  -0.144214 -0.0640635
0.00856376   0.146517 -0.0589061
-0.267546 -0.154067 0.0884517
  0.236131   -0.15286 -0.0318444
    0.35034   -0.133466 -0.00204914
 -0.15939  0.137756 -0.102094
0.227842 0.148841 0.121858
  -0.25248  -0.153264 -0.0337234
  0.308866   0.147124 0.00881189
0.205068 0.121167 0.118597
  0.235219  -0.151313 -0.0692494
 -0.408309     0.0376 -0.0385706
 -0.403376  -0.077572 -0.0530289
  0.214828   -0.15015 0.00942896
-0.202361  0.108826 -0.109671
0.0864228  0.136274 0.0683403
 0.0569984   0.142435 -0.0151687
 -0.126004 -0.0254368 -0.0954431
 -0.270964  -0.153623 -0.0975081
 -0.401386  0.0696828 -0.0463126
 -0.173995  -0.119789 -0.0541842
-0.0511937   0.132884 -0.0785703
-0.402101 0.0889008  0.048948
 -0.379618  -0.110308 -0.0549724
-0.325207  0.120813 0.0697367
  -0.160359   -0.137763 -0.00047797
  -0.37487   0.115839 -0.0468979
 0.222108 -0.150132 -0.069293
0.165157 0.129805 -0.11861
 0.0228295   0.146046 -0.0373159
0.072036 0.138674 0.019821
 0.136454  -0.10956 -0.102063
0.0922628  0.143075 -0.105937
-0.362183  0.127112 -0.081214
-0.0938487  -0.134409  0.0528581
-0.146791   0.13529  -0.10449
   0.236436     0.15261 -0.00588874
 0.280006 -0.138312   0.12076
-0.00363548    0.146642  -0.0610765
-0.0724714   0.139638 -0.0695553
-0.0836467  -0.125765 -0.0750303
  0.124897  0.0123162 -0.0665312
0.342665 0.137822 0.100691
   0.378418   -0.112006 0.000880155
-0.296265  0.151895 0.0880215
 -0.252346    0.15384 0.00776842
   0.339414    0.138306 -0.00750513
-0.0757839   0.138922  0.0699945
-0.0997614 -0.0996546   -0.12754
0.0508448 -0.142088 -0.105336
 -0.34506  0.138245 0.0990322
 0.230394  0.150717 0.0429809
 -0.275344     0.1511 -0.0127911
 -0.409749 -0.0365889   0.059242
0.0212296  0.146452 0.0732108
 0.204372  0.146416 -0.103221
-0.141261 -0.131322   -0.0905
  0.23739  0.152593 -0.111062
  0.405704  0.0459756 -0.0244741
-0.269823  0.152256 0.0485337
 -0.421562 -0.0851194 -0.0894115
 -0.20811    -0.152 -0.105115
  0.392434  0.0902598 -0.0203041
 0.0707793   0.139945 -0.0564569
0.0482988  0.142921 0.0450866
  0.290152  -0.142206 -0.0401032
  -0.383354 -0.00978251   0.0899487
  0.102418   0.131808 -0.0489443
  0.401011  -0.102579 -0.0684678
-0.291948  0.144421 -0.111434
-0.193168   0.14215  0.110235
-0.157212  0.125622 0.0463962
 -0.0795314   -0.137733 -0.00715635
  0.410526  0.0236177 -0.0937571
-0.120346  0.125631 0.0235454
   0.12476    0.07828 -0.0207016
 -0.216889   0.150936 -0.0225163
 -0.192537  -0.145403 -0.0995268
 -0.125977  -0.055713 -0.0413985
-0.405102   0.02578 -0.109078
 0.232848 -0.152216  0.107481
-0.195123 -0.127267   0.12008
 0.387854 0.0969109 0.0377912
 0.102954  0.131415 0.0641083
  0.392358  0.0880907 -0.0500904
-0.294459 -0.149859 -0.110895
 -0.336639  -0.140267 -0.0452043
-0.249553  0.147882  0.114801
-0.0972396   0.133041 -0.0310349
-0.203763  0.127184 -0.123041
  -0.12386 -0.0748627 0.00663235
0.0517869 -0.142434 0.0823222
 -0.409862 -0.0332548 -0.0230359
0.0710873 -0.149756  0.105065
  0.291303  -0.151351 -0.0517631
 -0.129484 -0.0601501  -0.128189
 0.387086 0.0373744 -0.110534
-0.0805204  -0.137696  0.0112857
 -0.384908   0.113268 -0.0571209
  0.345373    0.13591 -0.0513615
  0.370556 -0.0803406   0.117716
  0.268854  -0.153001 -0.0106576
 0.383997  0.117774 -0.059199
 0.410818 0.0206021 0.0382376
 0.408703 0.0371529 0.0521442
-0.00268845    -0.14715  0.00239161
0.296016  0.15147 0.044523
 -0.37213 -0.119266 0.0714907
-0.213264 -0.147662  -0.10827
 0.0144291   0.146274 -0.0660898
0.0162225  0.146492 0.0843908
 -0.131867  0.0410923 -0.0853826
  -0.23198  -0.152842 -0.0190635
 -0.31913 -0.125612 0.0307009
0.245296 0.136191 0.119143
 -0.11546 -0.147566 0.0796568
 -0.164862   0.138844 0.00701736
  -0.36368 -0.0723874   0.105538
 -0.373922  -0.127601 -0.0604969
   -0.18664    0.145747 -0.00347681
  0.150642  -0.134532 -0.0278378
 -0.234704   0.130671 -0.0679441
   0.123928 -0.00275635    -0.12807
  0.375381  -0.115674 -0.0210657
-0.125513 0.0871809 0.0621054
  -0.40118   0.112784 -0.0778676
  -0.1692 -0.139094 0.0413047
  0.124304 -0.0249106  0.0902516
 -0.400579 -0.0707097 -0.0274941
 0.330431  0.141511 0.0333306
-0.303408 -0.149287 0.0207675
  0.400172  -0.118715 -0.0219225
  0.131749  -0.127445 -0.0366942
 0.183577 -0.139646 -0.111163
 0.405201 0.0533398 0.0104216
 -0.401835 -0.0676985 -0.0267817
  0.272578  -0.152566 -0.0116983
-0.357209  0.125147 -0.109209
 -0.412391 0.00447498 -0.0492687
 0.0285256  -0.144444 -0.0492096
 -0.326944  -0.143262 -0.0637507
  -0.125562   0.0483719 -0.00283566
 -0.125321 -0.0801172  0.0572262
-0.0104594   0.145253  0.0462084
-0.387066  0.100856  0.066827
 -0.125489 -0.0137526  -0.054129
 0.111195 -0.116045  0.101371
-0.355157  0.108952 0.0313938
 -0.321027   0.143393 -0.0305076
-0.0842581  -0.132068   0.109533
-0.169587  0.128752  0.117176
-0.227427   0.15252 0.0948185
 -0.331097  -0.141496 0.00755603
 0.166886 -0.112812  0.121671
  0.311321  -0.147679 -0.0659173
-0.280936 -0.152335  0.054511
 -0.177993  -0.141783 -0.0956934
 -0.035594  -0.142926 -0.0772496
  0.409812 -0.0266968  -0.040553
-0.141129 0.0884096 -0.119663
 -0.15675  0.151499 0.0811251
0.0353244 -0.145542 0.0869995
 0.0679281  -0.139934 -0.0644914
-0.0276492    0.15575   0.113869
 -0.259792   0.154369 0.00558292
0.0185335 -0.147135 -0.093355
 -0.375917 -0.0501227 -0.0529117
 0.245887 -0.153735  0.109063
 -0.330987  -0.142577 -0.0640856
   0.411493 -0.00953028  -0.0547037
  0.132698  -0.123252 -0.0892069
 0.273593  0.151648 0.0104179
-0.159917  0.137132 0.0640463
-0.172931 -0.115132  0.125772
  0.232138  -0.151165 -0.0893679
 -0.38463 -0.128267 -0.013919
 -0.12372 0.0564094 0.0225023
0.0143549 -0.146571 -0.006333
  0.399587 -0.0666471 -0.0148413
 0.271089  0.153625 0.0802139
 0.245757 -0.153846 -0.102783
 -0.392875 -0.0219625 -0.0291546
 -0.375399   0.115526 0.00655276
  -0.41056 -0.0239579  0.0979316
-0.0560476   0.141773  0.0342294
  0.113838   0.136599 -0.0966984
 0.150723 -0.134501  -0.07021
-0.276155  0.152463 -0.021583
 -0.394436 -0.0864194 0.00442435
-0.020565 -0.146426 0.0465168
  0.230267   0.152375 -0.0426411
-0.0290369  -0.145933 -0.0445916
-0.24716 -0.15874 0.106994
 -0.415226 -0.0605208 -0.0970878
  -0.12539   0.103065 -0.0231402
 0.279884  0.151686 0.0194046
 -0.124577  0.0843071 -0.0504447
  0.31458 -0.136861 -0.119355
-0.171737 -0.140639 0.0182943
0.0209086   0.14521 0.0574135
   0.131933   -0.126478 -0.00962035
 0.0840712  -0.136499 -0.0777473
-0.212723 -0.153492 -0.107147
 0.366654 -0.123582 0.0570519
 0.385193 -0.102686  0.016101
-0.322715  0.123343  0.111394
-0.200308  0.126455 0.0951253
-0.383483  0.105532 0.0502184
-0.353292  0.132821 0.0773665
  0.410215  0.0306629 -0.0453346
 -0.126139  -0.029925 -0.0965287
-0.383105  0.120116 -0.040187
 0.220004  0.158824 -0.105421
-0.126213 0.0383414 0.0822543
-0.0719563  -0.139943 -0.0174959
    0.29941   -0.149955 -0.00573115
  0.164265   0.138288 -0.0071761
 0.129567  0.126784 0.0127121
-0.159337  0.136996 0.0558265
 0.194809 -0.146339 0.0613939
  0.400225 -0.0916752   0.101741
0.291716 0.149624  -0.1125
0.061669 0.132647 0.119165
-0.0973811   0.133067 0.00269689
0.0604497 -0.140988 0.0153309
  0.223585   0.151899 -0.0807099
 0.401608 0.0537172 -0.102274
 -0.330026   0.142682 -0.0474974
    0.3344  -0.141133 -0.0458202
 -0.277347   0.124002 -0.0532322
 -0.277828  -0.153189 -0.0770018
-0.0709785  -0.128149 -0.0742413
 -0.342918  -0.149069 -0.0823859
-0.0576653  -0.142764   0.020134
   0.36388    0.12486 -0.0365154
   0.38616   0.101333 0.00566457
-0.188876 -0.156926 -0.101865
0.124277 0.026768 0.108743
  0.375428 -0.0577552   0.114544
  -0.355641    0.130437 -0.00681181
  0.42014 0.0342737 0.0678772
0.0480642 -0.144501 0.0367824
 0.340953  0.110515 0.0648531
 0.145175 -0.131873 0.0447373
  0.419531 -0.0363885   0.101252
 -0.049984   0.142758 -0.0177618
   0.30542   0.150607 -0.0871412
-0.296386 -0.151928 0.0933829
 -0.116221 -0.0763841  -0.123752
0.294483 0.157778 0.104359
 0.359939  0.127539 0.0583662
-0.00699032    0.143635   -0.122556
 -0.137216  -0.127991 -0.0632913
 0.103483 -0.130647 -0.019536
0.0596493  0.141549 0.0455268
-0.324692 -0.143644 0.0196212
 0.268009  0.154977 -0.103528
   0.38156  -0.119366 -0.0852924
   0.121984 -0.00684036   -0.134399
  -0.27622   0.153275 -0.0679452
-0.177002 -0.117192 -0.117175
 -0.351182   0.132441 -0.0140741
-0.118943  0.124714 -0.084951
 -0.316581   -0.14563 -0.0455325
   0.402194  -0.0627543 -0.00239811
  0.401108 -0.0647111 -0.0189958
-0.202376  0.134254 -0.132722
-0.0349062  -0.145576  0.0653155
  0.140945   0.131062 0.00421582
 -0.409951 -0.0268101  0.0377627
 0.309817  0.148311 0.0535899
-0.0996842  -0.132706 -0.0329842
-0.395101 0.0838975  0.105001
   0.24198   0.153258 -0.0547653
-0.293104 -0.151896  0.102644
 -0.363093   0.124958 -0.0402961
 -0.427505 -0.0442392 -0.0925885
 -0.405415 -0.0570734 -0.0982796
 -0.389667 -0.0955943  -0.050483
-0.00842119    0.146701   0.0660099
 0.0624493  -0.141454 -0.0602134
 0.112478 0.0574642 -0.122802
  -0.33424   0.140772 0.00809942
  0.212405  -0.150116 -0.0965468
  0.330178   0.142891 -0.0222415
  0.350057   0.133698 -0.0974249
4.01555e-05    0.125846   -0.110461
 -0.255027  -0.153005 -0.0145113
-0.395162  0.100996 0.0619703
  0.395915 -0.0842431  0.0598994
 0.383171 -0.106617 0.0662229
  0.373565    0.11642 -0.0536652
  0.382774  -0.110232 -0.0475046
 -0.346345 -0.0931649  -0.095056
 0.406583 0.0468508 0.0956913
 -0.393296 -0.0884712 -0.0390816
 0.308247  0.148308 -0.032335
 -0.292891   0.150436 -0.0163387
-0.215977  0.150186 0.0454427
-0.403467 0.0636128 0.0483968
  0.125575 0.00219412    -0.1183
0.0164989  -0.14655 0.0595085
  0.124874 -0.0847505 -0.0367495
 -0.299479   0.117501 -0.0960744
  0.334425   -0.14099 0.00324759
  -0.412479 -0.00754346    -0.06597
-0.318629   0.14742  0.103006
-0.118237 -0.127069 0.0448089
0.0802194  0.148767 0.0851823
 -0.123297  -0.003531 -0.0265774
-0.280458  0.138177  0.113642
-0.038483 -0.144821   -0.0597
 -0.176272  -0.141778 -0.0517803
 0.392092 0.0852732 0.0980111
-0.288806 -0.152191 -0.110537
  0.218069  -0.149259 -0.0269528
  0.123392 -0.0291785  0.0400554
-0.292746 0.0101152 0.0274363
 -0.22269 -0.133713  0.118343
0.239619 0.132009 -0.11631
    0.411 0.0264382 0.0182016
-0.362316 -0.109448  0.111056
 -0.146504   -0.13235 0.00308182
-0.402648  0.059848  0.029357
 0.407626 0.0467368 0.0216374
 0.290341  0.151322 -0.109013
 0.367394 0.0981478 0.0579977
  0.411011 -0.0241137 0.00129513
0.305116 0.151128 0.100793
  0.192587    -0.1448 -0.0627623
-0.347854  0.102018 -0.113864
0.0479889 -0.113648  0.115709
-0.335051  0.139962 0.0563656
-0.0233631  -0.146137  0.0302561
 0.125463 0.0426552 -0.082142
 -0.127012   0.111432 -0.0422224
  0.167112    0.13801 -0.0953498
 0.0771718  -0.138386 -0.0233781
 -0.401715 -0.0699589 -0.0591171
-0.0589655     0.1422 -0.0341616
 0.234972   0.15287 -0.056755
 0.124866 0.0931217  0.001038
 -0.281278   -0.15298 -0.0723885
 -0.124316  0.0976034 -0.0607781
-0.407418 0.0893126 0.0959798
 -0.146854 -0.0680591  0.0952374
  0.0815049   -0.137401 -0.00760314
 -0.431715 -0.0165813  0.0942278
-0.249686  0.154454  0.102409
 -0.258446   0.153607 -0.0211215
-0.00605423    0.146698   0.0274407
  0.395306  -0.122096 -0.0369778
  0.397611 -0.0764673  0.0140325
 0.117601  0.115275 0.0989909
-0.0299228   -0.15082  -0.109462
  -0.369334   -0.119229 -0.00423378
 -0.326763  -0.142909 0.00665237
 -0.124084 -0.0500266  0.0665603
-0.181112  0.126579  0.120424
  0.12577 0.0733677 0.0771082
 0.131607 -0.148122 -0.108948
-0.307536 -0.149853 0.0914383
 -0.37859 -0.108606 0.0973436
  0.0909045   -0.135239 -0.00217637
-0.360635 -0.128478 0.0793116
-0.308777 -0.148888 0.0649353
  0.25845  0.153128 0.0448113
 -0.374536 -0.0972345  0.0364449
  0.309434   0.147809 -0.0335267
-0.141724 -0.117078 -0.106911
-0.0570396   -0.14233  0.0102853
 -0.378972 -0.0661127   0.063288
-0.268068  0.153632 0.0767687
  -0.39204 -0.0909728 0.00440396
 0.150901 -0.117789 -0.107564
-0.381297 0.0445789  0.123929
-0.14499 0.154392 0.106332
 -0.387217 -0.0995825 -0.0498178
 0.384205 -0.094439  0.111066
   -0.12208 -0.00497631    0.120142
  0.14926 0.0825335 -0.113139
   0.408824   0.0348869 -0.00922288
 0.280358  0.153298 0.0783318
-0.320225  0.129969   0.10863
  0.397394  0.0761205 -0.0540359
0.0207131 -0.148822  0.112252
-0.353339 -0.135827 0.0780386
-0.0358343   0.137689  -0.119713
  -0.13765  -0.128195 -0.0140611
 0.247542  0.152037 0.0116144
 -0.389365  0.0963199 0.00984891
  0.316809   0.148551 -0.0863693
   0.123161 -0.00711527  -0.0916593
 -0.270124   0.126482 -0.0548674
 -0.149313   0.138264 -0.0975527
 -0.125756 -0.0798541 -0.0673258
0.0641857 -0.148206 -0.111541
 0.309943  0.147251 0.0377316
 0.308662  0.148002 0.0330337
 0.238115 -0.139038 -0.101056
-0.127202 0.0853709 0.0203933
-0.311488 -0.116428 -0.116298
 -0.321462   0.144515 -0.0471458
