-0.00835778    0.411243   -0.485061
   0.269542  -0.0308565 -0.00170976
-0.0281542  0.0244937  -0.120646
 -0.277291 -0.0584554  -0.134432
    0.234502   -0.0155001 -0.000319082
-0.0905687   0.398815  -0.738612
0.0105137 0.0086409 0.0382979
  0.210928  -0.726335 -0.0709484
     0.27159   -0.0220241 -0.000745012
  -0.198548 -0.00326055    0.117297
  0.221541 -0.0374047   0.118495
 0.236097 0.0135626 0.0271776
  0.268727 -0.0191641   0.101994
-0.0172053  0.0206274   0.101766
 -0.204619 -0.0191627  -0.110994
 0.264354 0.0153926 0.0210164
-0.0294145  0.0221269  -0.163575
-0.00897831 -0.00147283   -0.116659
-0.167255 -0.698111 0.0760832
 0.151918 -0.550932  0.733691
-0.181367 0.0771638    0.2863
-0.0350128   0.801396    0.15156
 -0.16935  0.749742 -0.585774
  0.0104815 -0.00956238 -0.00361023
-0.0257828  0.0304197   0.139641
   0.10938   0.840536 -0.0968143
-0.00683415  -0.0111237  -0.0919141
-0.261991 -0.124459  0.234403
 -0.946894   0.154235 -0.0504964
 0.115806  -0.31138 -0.717248
-0.0232313   0.508556  -0.231041
-0.0131415  -0.033439    0.18473
-0.00585956    0.720106    0.277971
  0.240602  0.0124314 -0.0880342
 0.428274 -0.955793   0.32151
    0.250218 -0.000920898    -0.031632
-0.0257112   0.425719  -0.424435
0.00101682  0.0124129   0.179562
-0.114717 -0.291222  0.120274
 -0.195564 -0.0431693  -0.212736
0.000436633 0.000783411   0.0232058
-0.0505679  0.0329349     0.1715
 0.276128 0.0374892 0.0322599
0.729621 0.318268 0.163214
 0.00450934 -0.00626956   -0.036439
 -0.269125 0.00962504 -0.0200623
   0.264703 -0.00365263   -0.139571
  0.243811 0.00396897  -0.010128
    0.0074 0.00280826  0.0250588
-0.000210721    -0.001839   0.00198175
  -0.280383 0.000817333   -0.088616
0.0510143  0.565922 -0.210609
-0.055372 -0.650973 -0.409815
 0.726898 -0.054405 -0.502596
-0.0643948    1.29721 -0.0614724
-0.231318 0.0735571   0.27144
 0.273213 0.0167212 -0.181538
 -0.252189 0.00267947 -0.0382687
0.0850163  -1.03116  0.215475
 0.380276 0.0404724  0.737847
   1.37061 0.00514281   0.209022
 0.226791 -0.809334   0.27625
 0.272541 0.0219283 0.0314053
  0.0080769 -0.00379966    0.105938
-0.00132978  0.00281389   0.0591453
-0.351774 -0.222612   0.16116
-0.0119036 -0.0178384  -0.144093
0.342237 0.124997 0.353498
-0.163936 -0.832371 -0.175361
 0.342051 -0.155281 -0.478819
  0.243019 -0.0232916  0.0587177
-0.228859  0.200816 -0.768898
0.0922156  0.463758   0.20624
0.0460547 -0.248884  0.774634
 0.340446 0.0106804 -0.642501
 -0.238306 -0.0013937 -0.0030243
   0.250459 -0.00111838  -0.0202792
-0.451456  0.493533  0.175274
 0.203631 0.0997352  0.431943
  0.617076 -0.0801691    0.16714
 0.280954 0.0586273 -0.156076
   0.263089 -0.00586366   0.0238788
-0.816739  -0.19965 0.0204154
 -0.319263 -0.0460387    0.11403
 0.266569 0.0678063  0.212027
-0.435456  0.126375   0.68301
  0.252614  0.0395922 -0.0455069
0.0280304 -0.617127  0.185727
-0.0691455    0.77254   0.483272
-0.0402682 -0.0873362  -0.228265
-0.00337333  0.00511161   0.0402828
-0.230755 0.0175133 0.0874975
 0.018537 0.0471377 -0.134687
 0.275207  0.030368 -0.125143
-0.00139763 -0.00666528    0.119878
 -0.230391 -0.0812552   0.487288
0.00957463 0.00887007  0.0469931
 -0.273875 0.00526188 -0.0913341
-7.50051e-05  -0.00148506   -0.0751128
-0.766856  -1.11774  0.167476
 -0.286815 -0.0498665   0.116402
-0.266537  -1.07368 -0.437949
0.210074 -0.10755 0.345604
  0.555718  -0.478787 -0.0105169
-0.243129 0.0241559 0.0906098
-0.424041 0.0790623  0.601864
-0.0150327  0.0533616   0.237322
-0.236394 0.0124347 0.0187636
-0.0708691   0.177445   0.567703
-0.565244 -0.149115  -0.10357
 0.520607 -0.159065 -0.196576
0.0897775  0.590719  0.587783
 0.445838 -0.335718  0.113852
 0.309067 0.0525572  0.173518
 -0.268523 -0.0048147  -0.111934
-0.0145247 -0.0161902 -0.0312721
 0.356109 -0.118951 -0.462521
 -0.243851 -0.0249773  0.0236231
-0.614155  0.196926 0.0018979
 -0.279459   0.547352 -0.0111928
  0.24128 -0.801268 -0.118084
 -0.674075   -0.48984 -0.0746165
-0.010398 0.0249592 -0.203022
-0.0351227  -0.055303  -0.173008
-0.0195399 -0.0339073   0.483441
-0.0963646   0.553629   0.314532
-0.0377184    1.11895   0.178386
 -0.316251 -0.0221604  -0.151012
 -0.272944 -0.0920799  -0.221021
0.112583 0.750732 0.640343
-0.792989 -0.137365  0.020326
  0.234297 -0.0190428 -0.0494351
-0.0161452 0.00773128 -0.0699182
0.0290399   1.13494 0.0368394
-0.226482 0.0109737 0.0299865
   0.2326 0.0198006 0.0192994
  -1.2458 -0.936897  0.166832
    0.250877 -0.000269275       0.0517
-0.305114 0.0392009 -0.119639
-0.270154  -1.01497  0.446666
0.0158128 0.0281765 -0.121308
-0.0654141  0.0111962  -0.563866
    0.229465 -0.000482174    -0.116748
 0.0230061 -0.0197109 -0.0460195
 0.185508  0.117584 -0.566942
  -0.156952 0.000804713   -0.790665
  0.277442 -0.0686116  -0.176452
 0.303855 -0.686951  0.526708
0.0312177 0.0441394 -0.148594
 -0.20528 0.0443427 -0.185892
0.0808549   1.02716 0.0579997
0.0252863  0.725546  0.623698
0.132779 0.530602 0.166322
 -0.29782 0.0422734  0.150177
   0.248653 -0.00879972   -0.100802
 -1.07668 -0.199834  0.149015
 0.707746  0.303961 0.0519152
0.162702 0.144033 0.365681
 0.0222397  -0.022395 -0.0509645
-0.570178 -0.108778 -0.143083
 -0.231169 -0.0104822  0.0891469
-0.0117583  0.0124237 -0.0263104
 0.0704481   0.895108 -0.0701648
0.00571711   -0.22501    1.07318
 0.00547119  -0.0060605 -0.00762466
0.229274 0.458208  1.02303
  0.269876  0.0422312 -0.0888407
 -0.186752 -0.0178668   0.136422
  0.289313  -0.778839 -0.0476381
 0.136566   0.47424 -0.488818
0.0817874 -0.701051 -0.110266
 -0.054905    1.12208 -0.0693219
 -1.3575 0.200601 0.323008
0.000199693 -0.00249095   0.0460092
-0.0353373   -0.32883   0.295781
-0.00996287    0.018493   -0.119107
-0.00357294     1.19271   0.0486806
0.494436  0.37624 0.100282
 0.222043 0.0164305 0.0643179
   -0.00612 -0.00889777  -0.0859271
-0.0743769  -0.552895  -0.123054
-0.361518 -0.345731 0.0126738
  0.233091 -0.0464715   0.234879
 -0.245403 0.00648075 -0.0968634
-0.263235 0.0201099 -0.044483
-0.129788   1.02062 -0.246446
-0.080653  0.474554 -0.208231
  0.08887 -0.474364  0.124914
  0.03242   0.58368 -0.239347
-0.589214 -0.250034 -0.442088
-0.419484  0.358854  0.189385
  0.239788 0.00760679 -0.0754594
-0.00044385    0.027837   -0.126034
-0.0103533  0.0112492 -0.0312125
  0.252065 -0.0835394   0.208683
0.00881134  0.0109483 -0.0514829
 -0.208983  -0.019586 -0.0930487
  0.237529  0.0148703 -0.0628074
0.563936 0.232548 0.367112
-0.0197898  0.0185935  0.0291758
  0.714799  -0.255265 -0.0750405
 -0.224752 -0.0211458  0.0877836
  0.0142273 -0.00506037   0.0820363
 0.255696 0.0301964 -0.066026
 -0.274845 -0.0209297  0.0215949
-0.309166  0.107391  0.279178
0.0283963 -0.406872  0.793949
  0.17908   1.19038 0.0659334
   0.230701 -0.00635617   -0.122713
-0.0117474  0.0131556  0.0293058
 -0.295775 -0.0810876  -0.200212
 0.237896 0.0257756 0.0189838
0.0256029 -0.677652 -0.821782
  0.262527 -0.0125332  0.0869521
 0.226574 0.0171026 0.0938697
0.240774 0.604187 0.161824
 -0.234539 -0.0175737 -0.0582127
0.114596 0.434436 0.196123
-0.149281 -0.510592  0.161022
 0.304282   0.83608 -0.100664
 0.311817 0.0996742   -0.2528
-0.00233727    0.017101    0.886508
 -0.300862 -0.0982987   0.210318
 -0.231946  0.0139539 -0.0493562
-0.205634  0.213094  0.682672
-0.711634  0.313409  0.589079
-0.0182334  0.0165868  0.0105676
 -1.17392 -0.610088  0.143767
-0.00359162  0.00207601 -0.00696457
 0.213559  -0.41857 -0.193014
  0.205287 -0.0412494  -0.188776
-0.294795  0.050633  0.130953
 -0.645341  -0.381752 -0.0707832
-0.0787077  -0.732009  -0.227026
-0.0222398 -0.0267923  0.0916238
-0.0443858 -0.0904575   -0.24576
 0.014562 -0.291249 -0.984302
-0.415049 -0.588248  0.193575
-0.00229965 -0.00334921    0.119277
-0.00784657   -0.335484    0.914509
 0.30786 0.202763 0.485999
    0.23312 -0.00107578    0.128842
  0.246462  0.0045113 -0.0145701
 0.206073 -0.404409 -0.197655
  -0.250539 -0.00197725   0.0668178
-0.182295 -0.578105  0.229693
  0.292014 -0.0783636   -0.19131
-0.11549 -0.30049  0.10452
-1.16688 0.167924  -0.6809
 0.220741 -0.340807  -1.00422
  -0.21426 -0.0289692  -0.081136
  0.259348  0.0114982 -0.0350691
-0.0146839   0.211072   -0.40382
-0.606984   0.11542  0.325587
0.0709802  -1.12122 0.0611442
-0.0517055  0.0272818   0.186053
0.00452766 0.00553853 0.00753418
 -0.251822  0.0194376 -0.0231132
 0.764391 -0.252419 0.0828622
-0.000643036    0.0021151    0.0390456
0.324315 0.116796 0.343284
  0.26988 0.0377535 -0.118299
-0.0621593  -0.458913   0.143786
-0.307357 0.0250677  0.586645
 -0.861192 -0.0200674   0.252616
-0.268361  0.051553  0.113243
  0.30188  0.540801 -0.385177
-0.00271182  0.00422056 -0.00930868
-0.229067 -0.161226 -0.262768
  0.249324 0.00302148 -0.0250943
  0.599863 0.00179855   0.276224
  0.821816 -0.0136866  -0.161733
 0.285866 -0.646064 -0.153426
 0.267971 0.0269271 0.0779612
  -0.250016 0.000721623   0.0082892
-0.140229 -0.419436  0.153937
0.000758406 0.000462997   0.0319031
-0.891759  -0.79347  0.444427
-0.0615377    1.17747    0.18479
 -0.225723 -0.0184803 -0.0382328
    -1.37  0.706549 -0.116434
 0.00262476 -0.00356574  0.00113938
 -0.316037 -0.0481606  -0.220256
 -0.311038 -0.0221369   0.215569
 0.172176  0.521812 -0.426122
0.0397342 -0.915554 -0.142044
-0.311805 -0.484472 -0.109846
 -0.701025  -0.208722 -0.0172747
  0.261829  0.0110048 -0.0632689
 0.498423 -0.364054 0.0309894
 0.720382  0.250763 -0.830655
-0.0844079   0.473712  -0.606804
 0.402111 -0.714792 -0.288997
  0.243719 0.00621078 -0.0590075
-0.210804  0.645134 -0.714235
 0.250302 0.0201554 0.0486737
  0.40852 0.0898184  0.272034
-0.540037 -0.441914  -0.30955
-0.256594 0.0525376  -0.11975
-0.196851  0.506127   0.49217
-0.206224 -0.045291  0.179802
 0.0116512  0.0102869 0.00428093
  0.291976 -0.0545615  -0.160019
   0.238757 -0.00168494   0.0968448
  -0.304373 -0.00929368    0.241265
-0.380981 -0.545449  0.166841
  0.247426 0.00115701  0.0173726
-0.000636918   0.00244179    -0.013057
-0.227651 0.0286133  0.117385
 -0.249353 0.00173009  0.0137775
  0.268537 -0.0393028  0.0355903
    0.229206    0.0105498 -8.86421e-05
 0.240405 0.0117443 -0.013417
-0.701236  0.292357 0.0492948
 0.676346  0.177292 -0.141882
  -0.24052  0.0076124 -0.0242103
0.0260647   1.17536 0.0912384
 -0.242659 -0.0266654 -0.0260698
-0.252683 0.0476789 -0.173637
 -0.212723  0.0246736 -0.0818734
  0.225942 -0.0227044 -0.0529902
0.215152 0.466899 0.467121
 -0.650553   0.429092 -0.0269251
 -0.236535 -0.0149486 -0.0413286
    0.250589 -0.000680112   0.00248626
0.0247863 -0.603761  0.180605
-0.152352 -0.328995 -0.795254
-0.00218756  0.00712694   -0.107159
  1.09807   0.14014 -0.774732
-0.0454411   -1.08469   0.124775
  0.380529 -0.0784777   -0.25351
 -0.274431  0.0388692 -0.0908226
-0.00179125  0.00868036    0.137614
 -0.245084 -0.0236457 0.00986479
 -0.270878 -0.0452004    0.10951
-0.00964854  0.00444861  -0.0798029
   0.235948 -0.00354156  -0.0836039
-3.65836e-05   0.00131203   -0.0130184
-0.448494  0.757887 -0.273861
-0.00263309  0.00442659   0.0580711
-0.0468716    -0.3295   0.487965
 -0.231722 -0.0267749 -0.0346128
  1.10268 -0.261969  -0.41013
-0.0230262   0.240727  -0.931961
-0.218747 -0.485239  0.902978
 -0.256128 -0.0372968   0.162207
-0.0340956  0.0623418   0.366248
-0.000709443    0.0039583   -0.0279477
-3.94427e-05  0.000830659   -0.0535173
  -0.256144 -0.00807121   -0.020835
-0.266821 0.0229035 0.0917422
-0.305503  0.039939    0.1133
-0.208082  0.007399 0.0982685
-0.287606  0.150123 -0.309986
0.00140091  0.0242342  -0.124012
-0.226353 -0.057526 -0.134512
 0.307746 0.0753038 -0.174753
 0.12388 0.060666 0.449097
-0.0307711   0.913137  0.0233315
  0.223109 -0.0508911  -0.144809
-0.0123186   0.015214  0.0773829
  0.263244 0.00455063  0.0107331
-0.427277 -0.104524  0.215533
-0.326062   0.84194   1.02081
 0.229215 0.0272779  -0.11337
 -0.279849 -0.0668154   0.165951
  -0.26104 -0.0133022 -0.0889834
  -0.590499 -0.00580146   0.0129382
0.0314246 0.0467086  0.182227
-0.248375 0.0291882 0.0249883
-0.0159468  0.0137706  0.0388353
 0.575968 -0.148522  0.335725
-1.25363 0.176113 0.448139
   -0.250655 -0.000156651   -0.0134619
  0.327978 -0.0375081   0.160029
 0.222708  0.013306 0.0812162
 -0.15526 -0.437873 -0.226359
  0.291715 0.00807849  -0.147122
-0.296118 0.0485993 -0.146837
-0.25131 0.488771 -1.18585
 0.729867 -0.310889  0.272513
-0.306424  0.936658  0.363581
  0.714397   0.179433 -0.0995602
 0.515997  0.278373 -0.361959
   -0.60389 0.000123579 -0.00272751
0.0204812 -0.031492  0.127383
0.0311273  0.400161 -0.537223
  0.0158224 -0.00275936    0.011812
 0.220475  0.496005 -0.869066
-0.00797552  -0.0098697   0.0665404
 -0.301602 -0.0373993   0.158005
-0.320173  0.549794    1.2413
    -0.6176   -0.942599 -0.00446465
  0.237031 -0.0124522 -0.0188116
  0.235753  0.0160984 -0.0827685
-0.291711  0.824025 -0.480215
-0.237896  0.324379 -0.821982
-0.425219  0.513788   0.27261
   0.238064 -0.00405173  -0.0177671
0.0159475    0.8255  0.726774
-0.831128  0.245608 -0.443277
0.0715023  0.982863   0.11079
 -0.262937 -0.0159579  -0.044903
-0.0230284   0.035428   0.175777
0.0236279 0.0584344 -0.170912
 0.0103639 -0.0143077  0.0462889
0.0281352   -1.1819 -0.449893
0.0404335   1.22617  0.267743
 -0.246097   0.297708 -0.0462927
-0.944084 -0.309326  -1.08952
-0.315219  0.447211 -0.194459
  0.232837   0.550892 -0.0469475
  1.32569 -0.385478 -0.467418
 -0.0111219   0.0121657 -0.00177624
 -0.234354 -0.0191875 -0.0443043
   0.237753 -0.00918781   0.0173674
-0.00953564  -0.0167961   0.0117439
-0.0320049  -0.740294  -0.675412
   0.270325 -0.00934456   0.0312648
0.449493  0.51773  0.54012
-0.242463 0.0103166 0.0361695
0.0809236 -0.674232  0.844507
-0.447509  0.369209  0.247091
 -0.210722 -0.0270163  -0.134926
 0.789961 0.0456174  -1.04495
 -0.284567  0.0173521 -0.0931951
 -0.651505   0.164646 -0.0654792
   0.1084  0.357891 -0.218753
 0.380913 -0.213646 -0.193657
    0.250934 -0.000445094    0.0638115
 0.00340246 -0.00727684   -0.110255
 -0.493901 -0.0939864  -0.165081
 0.239033 0.0122043 0.0560036
-0.273007   0.53317  0.343648
 0.124221  -0.38027 -0.310554
-0.0239298  0.0157937  -0.187702
 0.329925 0.0634165 -0.295314
 -0.211921  0.0430763 -0.0922036
-0.771505  0.187839 -0.150472
 -1.00239 0.0494459  0.136402
  0.256836 0.00995159 -0.0311856
0.835741 0.187457 0.320441
 0.922793 -0.131531   1.13909
 0.146666 -0.576863  -0.03849
  0.225112 -0.0186163  0.0674615
-0.00249561  0.00552638   0.0882873
-0.140601 -0.523147  0.386534
  0.225932 -0.0263499  -0.110013
-0.0387956  -0.407164  -0.657134
-0.278344 0.0388473  -0.12252
-0.0243974   -1.23177   -0.11338
   0.106926 -0.00348709     1.20257
  0.273586 -0.0278281  0.0736014
-0.0470401     1.1964 -0.0252477
-0.0154615 -0.0288603   0.193365
0.0943441   0.84186 -0.142376
 0.0191803 -0.0234604 -0.0869987
 -0.260017 0.00995052 -0.0606064
 -0.199269 0.00239802   0.113434
 0.102568  0.315404 -0.316518
  0.249396 0.00278465 0.00411426
-0.220389  0.319212 -0.180549
0.951525 0.496226 0.406824
   0.240595 -0.00910759   0.0223609
 0.309377 -0.589747  0.200116
-0.260926 -0.615367 0.0309521
  -0.273081 -0.00186023   -0.106997
 -0.754404 -0.0332969  -0.491764
-0.0392556 -0.0710322   0.246434
 0.0177619 -0.0238819  -0.116818
 0.603903 -0.214607  0.281482
3.67432e-05 0.000167006   0.0125727
-0.0784335   0.667879   0.275173
 0.779455  0.132835 0.0914804
-0.163138 -0.769299 -0.354403
-0.0978049  -0.630435  -0.177213
   0.24357 -0.0130243  -0.140613
  0.264955  -0.016776 -0.0909595
 0.106231 -0.909438  0.682927
 -0.15282 -0.535535 -0.218531
-0.00303962  -0.0137205   -0.219629
-0.622573 -0.199806  0.103519
 0.337648 -0.452489 0.0973312
0.0104706  0.291014  -1.29581
-0.031319 -0.138875 -0.543562
-0.266076 -0.379221 -0.654461
-0.0149102  0.0202132  0.0913902
0.830912 0.510747 -0.24247
-0.452941 -0.116508 -0.769968
-0.0952337  -0.833848 -0.0295398
-0.0679735   0.383991  -0.242994
  0.309241 -0.0948978   0.331137
-0.307019  -0.32298   0.57091
   0.250919 -0.00107682    0.109053
4.37355e-05 -0.00251628    0.103208
-0.378395   0.15457  0.241155
-0.0185426   0.256389  -0.548023
-0.00467569  0.00657644  -0.0550128
 0.464183 -0.186568  0.286787
   0.67924 -0.0387761  -0.222161
 0.164679 -0.823518  0.230324
-0.745252  0.247899  0.368548
-0.426647 -0.105728  0.232545
 0.495572  0.129712 -0.526817
  0.113158 -0.0485359  -0.337714
 0.675389  0.283617 -0.113842
 0.0310459 -0.0363383  -0.152233
-0.554218  0.108093  0.168578
 -0.253492 -0.0386726  0.0832981
 -0.21501 0.0057252 -0.150232
-0.00801754   0.0030679   -0.108857
0.000344158  0.00944958   -0.450051
0.00621315 0.00448716 -0.0907102
-0.0701076    0.59216   0.686161
 0.683967  -0.34662 0.0789353
 0.393758  0.203634 -0.288073
-0.338426 0.0215642  0.201427
 -0.31142 0.0255336 -0.167604
 -0.0134346 -0.00256246    0.132116
-0.00269199 -0.00315216  -0.0399851
-0.0202533    1.28329   0.284423
-0.102681   1.03533 -0.285201
  0.282924 -0.0113635  -0.130505
-0.308999  -1.26385 -0.088765
-0.782592  0.275847  0.803681
 0.152416 -0.349862 -0.170758
0.634442   0.1176 0.140703
-0.317785 -0.958949 0.0996287
0.0331098 0.0281843 0.0753123
0.0923282  -1.07398 0.0354346
  0.310143 -0.0485868  -0.178624
   0.253275 -0.00303486   0.0801468
-0.30035 0.525004 -0.47388
-0.143011 -0.973444 -0.225285
    0.3048 -0.0145196  -0.151025
  0.26552 -0.660961  0.516478
-0.325469 0.0183034 -0.282829
-0.0708996   -1.25475  0.0591656
   0.10138  -0.794037 -0.0816168
 0.694571  0.161554 -0.081409
 0.0171039 -0.0589238  -0.205265
 0.462715  0.550335 0.0125333
-0.395134 -0.181876    0.8171
0.0111226 0.0183057  0.131624
-0.198558  0.487676  0.333973
 -0.190102 -0.0069123   0.132856
-0.00483626  0.00698298   0.0689079
-0.289907 0.0395832 -0.117651
 0.268976 -0.029683 0.0976298
0.123484 0.174769 0.174624
-0.0288491   -1.09226  -0.110382
 -0.546324 0.00251462   -1.07225
   0.250453 -0.00010972 -0.00373319
-0.126665 -0.297475    0.1243
-0.272834 0.0450444   0.19768
-0.0454426    -1.2103  0.0743418
  -0.264393 -0.00316184  -0.0361962
 0.560822 -0.188813 -0.168391
  0.218908 -0.0218286   0.094561
 1.37571 -0.42365 0.690365
  0.237287 -0.0172283 0.00124864
  0.21157 0.0446366     0.164
 -0.238805 0.00773246 -0.0196454
  0.256757   0.007949 0.00819082
-0.126103 -0.451044 -0.274337
0.00232706 0.00384867  -0.016725
 0.192103 -0.521481  0.654827
 0.245427 -0.343219 0.0876427
0.430158 0.463958 0.178104
   0.128792 0.000460293   -0.423111
-0.239068 0.0279613 0.0755796
 0.541416 -0.504119 -0.020404
  -0.251859 0.000897231   0.0647843
5.96418e-05  1.7259e-05   0.0397047
  0.270949 -0.0240265  0.0676297
-0.00721426   0.0117633  -0.0421065
8.18675e-05 -0.00163761    0.104098
-0.158168 -0.554791   1.12877
-0.115752 -0.465573  0.266602
-0.592559  0.347734 -0.214248
-0.663083 -0.678686  0.229826
  0.212132 -0.0466157  -0.147508
-0.274855 -0.034452 0.0576892
 0.216518 0.0256065  0.215311
-0.230973 0.0187835 0.0485722
    -0.355 -0.0401769  -0.299602
  0.675777   -1.21156 -0.0499423
  0.308286  -0.482788 -0.0854663
  0.216075 -0.0254264  -0.064496
-0.0969498  -0.944752  0.0831748
 0.692734 0.0468153 -0.185234
 -0.0216554 -0.00857352   0.0976456
  0.141155  -0.629276 -0.0771376
0.123153 0.174021 0.174028
  -0.30991 -0.0284782   0.143546
   0.198739 -0.00842643    0.201597
-1.01363 0.150992 0.754281
-0.00271523 -0.00505526  -0.0852024
 -0.734945 -0.0646744  -0.189316
 -0.280367  0.0176972 -0.0955057
-0.322094 0.0798559  0.375021
 0.151968 -0.662201 -0.471064
  0.0138867 -0.00151716   -0.164697
 0.086752 -0.585881 -0.223889
 0.248128  0.031192 0.0933586
 0.012807 0.0467463 -0.135846
  0.808592 -0.0487593  -0.151504
 0.112477 -0.410567  0.162207
0.080111 0.937094 0.181475
0.0694962 -0.521922 -0.162202
 0.24552 0.504515 -0.59419
   0.155727 0.000425006    -0.87849
 -0.380194 -0.0965587   0.218939
 0.397994  0.163213 -0.607899
 -0.234566    0.02734 -0.0837013
-0.0963118   0.720253   0.193742
 0.378172 -0.347977  0.255944
0.544627 0.624343 0.428087
 -0.236837 -0.0136551  0.0631878
-0.240055  0.301698  0.353531
 0.231015 0.0275961  0.121443
-0.0111267  -0.944101   0.205265
-0.848931 -0.312061  0.297685
   0.250511 0.000412635  0.00978229
 -0.206028 -0.0218439  -0.170138
  0.256152 -0.0290211  -0.145471
 -0.705858 -0.0618731    0.19195
 0.245334 -0.015013 0.0128658
 -0.206148 -0.0289622   0.104622
-0.0900022  0.0133142   0.555753
-0.662995 -0.221407 -0.249419
-0.208624  0.101611 -0.208582
-0.0158129  0.0446686   -0.36214
-0.0838893   0.416043  -0.648572
 0.258928 0.0663835  0.187832
-0.796725 -0.205877 0.0393113
-0.0859236    1.35006  0.0988738
  0.223052 -0.0347641   0.223958
  0.229185 -0.0154449 -0.0253948
0.899137  0.34946 0.521949
-0.223925 0.0289653  0.203673
0.00975863   0.589243   -0.17135
0.254209 0.249626 0.704144
 0.149913   -1.1262 0.0397014
0.00306922 0.00474621 -0.0278287
 -0.217496 0.00114045  -0.159513
 -0.225412 -0.0342944  -0.101481
-0.0922863   -1.15243  0.0128257
 0.176575  0.147035 -0.517791
0.0221857  0.872643 -0.132662
-0.0195785 -0.0300931  0.0897082
-0.0711981   0.409722  -0.179664
   0.253125 0.000810976  -0.0886027
 0.231146 -0.107424 -0.287307
-0.244763 0.0148713 0.0183877
-0.0677898   0.570158   0.237378
-0.00754537  -0.0452452   -0.488804
0.0272421 -0.396635  -0.99481
0.0186216  0.571929  0.231554
  1.23123  0.202616 -0.148278
-0.296787  0.538591 0.0948088
-0.556804 -0.143877 -0.226856
-0.108592  0.318873 -0.251762
  0.739126   0.312322 -0.0656463
 0.0101213  0.0162085 -0.0968689
 0.225295 0.0361535 -0.178632
0.00738382 -0.0158363   0.138292
  0.225371  0.0205392 -0.0757834
-0.00244274   0.0838051    0.189444
 -0.235538 0.00729268  0.0393192
-0.254211 -0.379682 -0.236405
0.00161018 0.00197382  0.0684963
-0.183725 -0.425337  0.114806
  -0.251172   0.0014832 -0.00168309
   0.24746  0.0148643 -0.0894473
 -0.53416 0.0956392 0.0903006
    -0.7833 -0.00966558  -0.0688372
  0.215562 -0.0309834   0.183562
0.000239475    0.552543    0.897698
  0.0792861   -0.738081 -0.00868769
0.285581  0.25463 0.799623
-0.119825 -0.282049  0.114178
 0.316229 -0.173296  0.396036
 -0.246835 -0.0154695  0.0413455
-0.0173935  0.0196988   -0.04371
  0.262183 -0.0255307 -0.0277626
-0.00968957 -0.00596921  -0.0129109
-0.152143  0.342539  0.251501
-0.0454413   -0.24739   0.413096
 -0.212329 0.00957451   0.262621
-0.156874 -0.431187  0.332946
-0.201333 0.0303401 -0.116256
0.011802  1.07718 0.156729
0.730327 0.557025 0.827666
  0.338499 -0.0315999   -0.26242
 0.389209  -0.19131 -0.370028
 -0.278151   -1.26797 -0.0596854
0.0165171  0.023143  0.107465
0.121099 0.579304 0.626407
-0.00125559  0.00387395  -0.0644251
 0.842577 0.0361545 -0.107815
 -0.065374   0.892422 -0.0793409
-0.410286 -0.712201 -0.300013
-0.117092  0.259153  0.210155
  -0.24105   -1.01253 -0.0486229
-0.00358502  -0.0160259  0.00510809
0.691996 -0.30097 0.154102
0.277578 0.408293 0.377247
-0.242257 0.0180448  0.037219
-0.0101642   0.015344 -0.0390033
-0.705709 -0.330302  0.181587
-0.000753742   0.00295703   -0.0162939
   1.00029  -0.189913 0.00101198
0.0812162 -0.419071  0.998066
0.00561474  0.0248408   0.115204
-0.330564 -0.146547 -0.901329
 -0.225349 -0.0100575 -0.0356724
 0.429178  0.107839 -0.294023
 0.235067 0.0323238  -0.20775
  0.324854 -0.0248904   0.168164
 0.94923 0.759436 0.764068
 0.650013  0.153182 0.0307474
 -0.233574   0.019896 -0.0651414
-0.000939921   0.00473777   -0.0871791
 0.781603 -0.354001 0.0101534
 0.0135419 -0.0155356 -0.0302058
-0.00230853 -0.00260724   0.0596539
-0.0268124   0.679306   0.134079
 0.00367939 -0.00583355  -0.0977514
    0.2419 -0.0116295 -0.0771499
-0.119645  0.824374  -0.21005
  0.57464 -0.978013 -0.266779
-0.356042   1.30928 -0.101509
-0.0723994  -0.316909  -0.899461
 0.0203602 -0.0232632 -0.0781002
-0.00151475  0.00929151    0.461692
 -0.126842    1.11818 -0.0581175
 0.320991 0.0011351 -0.170628
  0.255001 -0.0055252  0.0486294
 0.0200405 0.00866306  -0.012585
0.400239 0.097586 0.243282
-0.228866 -0.110628 -0.224004
 -0.241893 0.00741089 -0.0364451
-1.60294 0.306384 0.177939
 0.298064  0.130154 -0.247101
-0.456334   1.34678  0.107108
 -0.783734  -0.208574 -0.0169093
 0.748477  -0.16151 -0.412402
-0.618993  0.283126 -0.188143
-0.000165893   0.00116927   0.00807538
 -0.126706 0.00666015  -0.594102
 0.00274144  0.00458249 -0.00488879
-0.00576115   0.0100946    0.114587
 -0.160027 -0.0144785  -0.468624
 -0.0372587 -0.00599383   -0.135166
  -0.23343 -0.0678295  -0.174337
-0.240589 0.0198751   0.11659
 -1.16868 -0.202851  0.252796
-0.219805  -0.19202 -0.686262
 0.924258  0.199501 -0.595266
  0.243402 -0.0153789  0.0377549
 0.552732 -0.127178  0.379844
 0.917145 -0.191827  0.052915
  0.757423    0.24637 -0.0719956
-0.0183042 -0.0214095 -0.0926468
 0.115905 -0.433808 -0.173796
 0.291458 0.0624805   0.14407
-0.00130907  0.00541656  -0.0273084
 -0.246525 0.00329382 0.00341912
-0.251837 0.0198846 0.0559601
 -0.234424  0.0107503 -0.0445212
0.649122 -0.52135 0.283498
-0.638102  0.195436 -0.125298
  0.267098  -0.031811 -0.0613723
 -0.269081 0.00272609   0.143307
 -0.271668 -0.0523418  0.0951519
  0.43067 -0.206527  0.487226
0.0246335  0.127258 -0.534164
   0.251037 0.000482766    0.042755
 0.243148 0.0177778 -0.119296
 0.830926  0.772659 -0.211847
-0.293408 0.0176493 -0.121433
-0.393908 -0.677648 -0.393469
 0.170759 0.0449962  -0.56145
0.518681 0.530482  0.43146
 -0.231139 -0.0115289   0.037303
   0.228887 -0.00855984  -0.0883613
-0.0685925  -0.895499  -0.010927
 -0.918642  0.0205292 -0.0279753
-0.907492 -0.178771  0.578592
 0.273667 -0.470023 -0.278938
0.0785721   1.31833 0.0566451
   0.25573 -0.0364859  0.0793213
0.0896791  0.315578 -0.300963
   1.05936  -0.276293 -0.0383587
  1.08044 -0.322755 -0.114434
-0.00205413  -0.0138972    0.122253
 -0.250086  0.0386561 -0.0902085
0.379188 0.766305 0.203767
-0.0557247   -1.16935  -0.167619
 0.239055  0.845073 -0.208196
-0.294719 -0.433672   0.57179
-0.746482  0.937328 -0.228297
-0.261954 0.0296992 0.0238422
0.713926 0.514712 -0.27324
 0.69839 0.115572 0.829526
1.14665e-05  0.00077863  -0.0039545
 0.035509 -0.021992  0.147081
0.000546363 -0.00474353   -0.233272
-0.0189999 -0.0283602  -0.221627
  -0.32046 -0.0543579   0.245019
 0.0222231 -0.0143264 -0.0581097
-0.0127237 -0.0157991    0.07815
  0.243035 -0.0199764    0.12631
 0.284926 0.0294215 -0.145822
-0.0473736  -0.682656  -0.179632
-0.429598 0.0772839 -0.354502
   0.233837 -0.00063924   0.0531304
 -0.246082 -0.0625033   0.401111
  0.272071 0.00445096  0.0320852
-0.272212 0.0137462 0.0956164
  0.270667 0.00726887  0.0377164
 0.290322 0.0359341  0.134972
   0.269981 -0.00392706   0.0062636
 0.120115  -1.08297 -0.302512
-0.314262 0.0778082 -0.290783
0.00773132  0.0123143  -0.120796
0.0613575  -1.00356 -0.069531
 -0.246568  0.0318516 -0.0521391
 -0.202782 0.00671812   0.153081
  1.04319 -0.804525   -0.2496
0.115232 0.120866 0.234762
 0.0298969 -0.0508391   0.162661
0.0168056 0.0120795  0.119917
 0.137197 -0.360512 -0.446025
-0.321491 -0.247501  0.183464
   0.013178  -0.0123859 -0.00152382
 -0.284602 -0.0321025  0.0923618
-0.375418  0.460342 -0.296634
 -0.231281 -0.0289992   0.108582
  0.732761 -0.0953166   0.117991
-0.00289873  0.00676907    0.110085
 0.213734 -0.278003   1.07639
-0.0319537  -0.473276   0.894635
-0.404615 -0.198056  0.866855
  0.262523 -0.0312278  0.0123513
  0.245003 -0.0123625 -0.0556083
  -0.3561 -0.152441 -0.265055
0.0214613 0.0249924 -0.117478
   0.324314 -0.00288781    0.263198
0.582467 0.905877 0.156412
  0.0137379 -0.00718846   0.0320351
 0.148029  0.563221 -0.251437
   1.05788   0.211826 -0.0753656
-0.284872  0.586268 0.0562834
-0.0436512   0.347812   0.156212
-0.17393    0.116  0.30267
 -0.57366  0.027945 -0.421575
-0.00353578  0.00588268  -0.0483595
0.000131482  0.00481422  -0.0999524
-0.525268 0.0919501 0.0766998
  0.26688 0.0632747 -0.427945
   0.92436  0.0727386 -0.0133506
-0.00681122  -0.0110076   0.0663302
 -0.208037 -0.0802953   0.496777
-0.206641 0.0567169 -0.187731
 0.312998 0.0604226 -0.165838
-0.811078  0.487766 -0.228003
-0.275343 -0.010992  0.120626
  0.261115 0.00974085  -0.135309
 -0.266396 -0.0196423  0.0334642
-0.613125  0.658771 -0.524999
-0.194207   1.24589  0.330825
  0.267721 -0.0261176 -0.0790581
0.00906209 -0.0104307 0.00305066
0.109881 0.866671 -0.12004
-0.237549 -0.013774 0.0207726
  0.268055 -0.0159564  -0.074404
-0.00929387   0.0154578  -0.0713211
   0.22605 -0.0171645 0.00784553
 0.416094 -0.217894  0.550428
 0.233826  0.020903 0.0105091
-0.0296965  -0.980194  0.0437194
 0.308432  0.816114 -0.222553
-0.0523057    1.09006  -0.162331
-0.171252  -0.84897  0.978761
 0.290015 -0.682508  0.188303
 0.103178  -1.02588 -0.200195
0.448318 0.954354 0.135335
 0.0225324 -0.0184749 -0.0334892
 0.981865  0.551865 -0.536962
-0.44909 0.374799 0.197907
 -0.203255 -0.0127764    0.12133
-0.00630203    0.441866   -0.221399
 0.541322 -0.373518 -0.435943
 0.831077   1.02711 0.0834573
  0.0342808 -0.00481922     0.63867
  -0.216623 -0.00422518    0.102475
  0.149733   0.831575 -0.0336718
0.237064   0.6767 0.279793
-0.643965 -0.161432 -0.451391
  0.215614 -0.0248355   -0.16287
 -0.0104126 -0.00843205   0.0271777
  -0.182791 -0.00842795    0.169298
-0.0066128 0.00912549  0.0173261
 -0.246256 0.00108637 -0.0355735
  0.270571 -0.0255332 -0.0274032
0.00741586 -0.0090928  0.0301803
-0.0434011   0.177727   0.348171
0.0885443 -0.674175 -0.714121
   0.229921 -0.00166688 -0.00378453
  0.250388  0.0028128 -0.0604179
-0.145229 -0.269863 -0.940198
0.0556736  0.764887  0.127013
 0.0107418 -0.0121042 -0.0710103
 0.623412  0.154013 0.0277348
  0.251203 -0.0012175  0.0250166
 -0.201948 -0.0175144   0.110996
 0.110965  0.812139 -0.085228
-0.266334  -0.31454  0.548036
-0.36343 -1.25473 0.524554
-0.310583 0.0396087  0.147146
 0.624236 0.0435025  -1.05888
-0.0465702  -0.583433  -0.206713
 -0.257501 0.00835227 -0.0228597
-0.310437  0.165234  -0.26454
 0.174751 -0.705169  0.150805
-0.0619077  -0.371575  -0.572505
0.104478 0.111091 0.222222
 0.237961 0.0179855 -0.115703
 0.00433491 -0.00756835 -0.00170679
  0.233873  0.0140858 -0.0468373
0.0344973 0.0343835  0.202507
 0.635973 -0.183789   0.38615
-0.018742 0.0204611 0.0416389
0.0270404  0.016598  0.141666
   0.24819 0.00523863 -0.0675544
  -0.16974 -0.0495301   0.488787
  0.318906 -0.0974301    -0.2253
-0.0428306  0.0268525  -0.442459
 0.0164042 -0.0248326  -0.205021
 -0.239337 0.00212732 -0.0606094
 0.0742879   0.938532 -0.0474733
  -0.236446  -0.0119604 -0.00653096
 0.617067 -0.596987 -0.124181
  -0.23478  0.0135612 0.00116705
0.00939184 0.00438806    0.11003
  -0.26851 -0.0846578   0.211858
-0.0844881   0.538782  -0.750107
 0.448094 -0.388657   0.44158
-0.0532284    1.15466   -0.15011
-0.684451 -0.899588   0.44096
 0.438303 -0.598529  0.018705
  0.248008 0.00445384 -0.0527396
 0.255336 0.0634113 -0.179037
   1.05082 -0.0141344   0.365447
0.390685 0.051549 0.648445
0.0607105  0.022849  0.382697
-0.507068 -0.468716 -0.284565
 0.244436 0.0455035 -0.166777
-0.0613206     1.1269 -0.0791577
 0.261855 0.0122033 0.0341044
0.0934973 -0.789464 -0.117061
-0.0218797 -0.0131099   0.217858
 0.312647 0.0183103  0.218939
  0.266936 -0.0276542   -0.03772
0.00471631 -0.0180778  -0.140479
0.00320135 0.00417835 -0.0395149
0.298279 0.172116  -0.2619
 0.0601146 -0.0336918   0.197382
  -0.24998 0.00204078  0.0740398
 -0.16391 -0.984368 -0.402958
-0.0299716    0.49664  -0.165405
 0.0637227 -0.0410462  -0.291233
0.412432 0.391198 0.187182
 0.213885  0.724665 -0.203839
 -0.204217 -0.0722321  -0.336241
-0.120993 -0.611863  0.133185
 0.551688 -0.341676 0.0919897
   0.22659 -0.0146381  0.0554033
0.00425015 0.00664583 -0.0610714
 0.287147  0.029862 -0.105028
-0.229837   1.23366  0.293961
-0.254837 0.0386963  0.117294
-0.532816  0.420886 -0.201667
0.000480276 -0.00391174  -0.0981888
-0.0292056 -0.0185095 -0.0501373
 0.125223 -0.438924 -0.361935
0.00628406  0.0566579  -0.149259
  0.259599 -0.0138917  0.0529707
-0.0156797 -0.0131622  0.0652551
-0.200301  0.161729 -0.717571
-0.423896  0.796396  0.587218
-0.0357837  0.0501144   0.371619
0.0843589   1.01136 -0.224351
 0.316143 0.0748889   0.20466
 0.0122293 0.00122103   0.101174
 -0.096278   -1.00728 -0.0644958
0.231417 0.471233 0.439648
 0.521882 -0.197925 -0.120237
   0.253132   0.0287788 -0.00524411
 0.308634 -0.244927   0.40478
   0.254323 -0.00165599    0.111323
  0.276196  0.0257309 -0.0629484
  0.251251 0.00182481   0.061429
-0.328715  0.515496 0.0315585
0.118321 0.110419 0.244278
0.000190448 0.000746856  -0.0343237
  0.272887 -0.0696397   0.186908
  0.290829 -0.0617865   0.183948
  1.48318 -0.453589  0.261444
-0.0732335  -0.134092   0.388802
 0.261006   1.00812 -0.293136
 0.146583 -0.621731  0.622778
 -0.63249  0.144921 0.0877583
-0.0750213  -0.997668   0.142286
-0.157708  0.268266  0.356998
  0.544119 -0.0728725  -0.432444
  0.124314   0.644554 -0.0438652
0.000461251  0.00413898       0.143
0.0955539  -1.19348 -0.139212
-7.50218e-05  -0.00115254    0.0916142
-0.515832  0.712097 -0.215215
  0.302486 -0.0551442   0.175552
-0.603379 -0.107297 -0.392743
 -1.33359  0.349269 0.0712983
 0.0233539 -0.0167741  -0.025298
 -0.361222 -0.0563289   0.310493
  0.205389 -0.0173384  -0.293743
 0.260854 -0.104045 -0.495038
  0.243103 -0.0210278   0.066749
0.0102355 -0.966019 0.0436667
    0.82293   -0.334254 -0.00920279
 1.27155 0.149603 0.100692
  0.230909 -0.0113529  -0.118062
0.0330166 0.0829085 -0.223074
-0.148725 -0.528655  0.824839
   0.1966 0.0271435 -0.201995
0.0817575   1.01311 -0.241264
 0.522954 -0.193471 -0.165453
 -0.2303 0.317337 0.748343
0.0344322 0.0466701 -0.573478
  0.230883 -0.0532386  -0.164553
 0.0182802  0.0119809 -0.0300888
 -0.240957  0.0177609 -0.0542913
-0.0173381 -0.0105786 -0.0661545
0.667702  0.29226 0.137766
-0.264935  0.190766  0.690205
-0.0603685    1.00103  -0.120783
-0.212081  0.107535 -0.207155
 -0.235106 -0.0113387  0.0134173
 -1.58888 -0.159931 -0.217961
 -0.151492 -0.0115006  -0.526438
 0.451879  0.480044 -0.179772
  0.290328 -0.0266899     0.4551
  0.246336 -0.0308783 -0.0103637
  0.252105 0.00172963   0.072598
0.669493 0.042042 0.120176
0.000851369 -0.00225689  0.00614487
0.00119786 0.00374439 -0.0724584
-0.251057 0.0641688  0.193589
 -0.239478 -0.0278848 -0.0345878
-0.475974  -0.22029 -0.554473
0.243267 0.108602 0.271155
  -0.239172  0.00996869 -0.00793648
 0.0504551 0.00310601  -0.256839
-0.145358 -0.584584  0.124672
   0.238638 -0.00961941    0.154328
 -0.33256 -0.911067 0.0753577
 0.196419 -0.207627 -0.457867
 -1.47702 -0.438485 -0.214067
-0.00380255   0.0057207    0.076324
-0.607604 0.0256562  -0.43519
 -1.04419 0.0281787  -0.26713
-0.0069452 0.00819014 -0.0053087
-0.623582  0.294417  0.254599
 -0.300277 -0.0547635  -0.147322
 -0.227935 0.00210548 -0.0906285
 0.212111 -0.105289  0.395193
-0.22077 0.440063 0.367663
 -0.204107 -0.0456288   0.122585
-0.149385 -0.489839 -0.983663
-0.00734064  -0.0306385   -0.171937
0.0316867 -0.752563  0.460741
 -0.278133 -0.0115733  -0.112348
6.16489e-05  0.00128593  -0.0218264
 0.244827 -0.503228  0.707213
-0.417429 -0.514903 -0.221143
-0.103216  0.882206  0.301353
 0.217477 -0.935662  -0.69577
-0.765696 -0.628196 -0.497325
 0.0222462   -1.27701 -0.0393956
 -0.250359  0.0337701 -0.0558064
   -1.35189   -0.592228 -0.00323134
0.000759871 -0.00351357   0.0801388
-0.00172353 -0.00449254  -0.0744186
-0.286355 0.0163659  0.143546
 -0.21702 -0.571808  0.749533
-0.0223753  0.0224548  -0.037326
 0.278521  0.461762 0.0440358
  -0.208566 -0.00570716   -0.158339
-0.471417  0.245522 -0.077984
 -0.20719 0.0162234  0.127062
0.0775808  0.314104 -0.268238
-0.00478176  -0.0066931  -0.0275766
-0.110319  0.716062  0.195928
  0.234681 -0.0280888   0.118015
0.015917 0.100448 0.606245
  0.251946 -0.0233727   0.141798
0.541437 0.123937 -1.11181
-0.0127004 -0.0249058  -0.134365
-0.00709028  -0.0166009   0.0310392
  0.278388 -0.0337234  -0.112196
  0.277542  0.0366122 -0.0780687
 -0.291527 -0.0536507   0.163161
0.00953039 -0.0105991  0.0608971
  0.231154 -0.0190584  0.0814401
  0.664064 -0.0939647    0.56596
-0.0354203    1.02516 -0.0566514
0.00139836 -0.0203527   -0.55332
-0.0176927 -0.0404295  -0.178758
0.800068 0.947789 0.486979
-0.0907231   -0.66139  -0.243086
 0.0807368  -0.764429 -0.0452598
0.00742231 0.00726473  0.0761618
 0.257963  0.571825 -0.835468
   -0.4322   0.365627 -0.0328127
  0.251504 0.00491067  -0.117096
   0.254699 -0.00354197   0.0921399
 0.278406 0.0381499 -0.069866
  0.249637 -0.0203508 -0.0639263
  0.150612  -0.668914 0.00668066
0.428426 0.668032 0.419571
0.0198304 0.0303548 -0.196649
-0.761247 -0.118612  0.263348
 0.0097258 -0.0119366  0.0698529
 0.0181286 -0.0330283  -0.174478
-0.177346 -0.489846   1.14869
-0.241619 -0.027699 0.0930202
 0.329511 -0.270629 -0.464394
-0.217369 0.0626202  0.158151
-0.150615  0.945772 -0.215694
-0.0246488 -0.0036882 -0.0679062
0.129774 0.102535 0.295428
 -0.301303 -0.0395979   -0.12613
  0.242627 -0.0118475   0.094328
 -0.111636 -0.0957898  -0.244828
-0.0112157 -0.0122136  -0.039072
 0.0046341 0.00504681  0.0215358
 -0.747356 -0.0724885  -0.307164
  -0.22398 -0.0319194  -0.153149
-0.195301 0.0178129  0.641459
0.696102 0.138975 0.131329
-0.210825 0.0774547 -0.200739
 -1.05555 -0.515255 -0.068446
 0.263686 0.0347254  0.060437
 0.255191 0.0178264 0.0157177
 0.058202  0.591053 -0.136309
-0.181018 -0.858037  0.231243
-0.00160093 -0.00317156   0.0100134
0.252557 0.195226 0.628373
-0.791478  0.229675 -0.954101
-0.0669602  -0.645028 -0.0588455
 0.0495318   0.964153 -0.0198959
0.0170382  0.023895  0.133917
 0.789486 -0.613696 -0.391628
  0.280978 -0.0365853   0.123022
  0.0683146    -0.51444 -0.00270238
-0.0272977 -0.0347014  0.0985159
 0.265073 0.0582269  0.122598
  0.258786  0.0120752 -0.0221137
  0.244977 -0.0145274 -0.0328764
0.0144186 0.0731734 -0.542938
-0.222355 0.0170153 -0.205315
 0.000202888 -0.000274891    0.0786842
-0.0752491   -1.12225   0.137777
 -1.02517  0.533266 -0.659622
   0.232429 -0.00638112  -0.0641108
-0.00534618   -0.191889   -0.670777
  0.235273   0.015601 -0.0373071
0.0749446 -0.340419  0.154882
  0.272268 -0.0383948  -0.111679
 0.0166859  0.0124743 0.00140969
-0.00435422  0.00550168  -0.0444787
-0.586673 -0.234523 -0.176248
 0.354986  0.884191 -0.109916
-0.247011 0.0351778  0.156669
-0.597691 -0.165535 -0.107525
-0.939592 -0.145733 -0.204099
 -0.239724 0.00967008  0.0158534
 0.321524 -0.551544 -0.120049
   0.23985 -0.0125985  0.0643803
-0.254517 0.0161945 0.0700483
-0.704824  0.385532 0.0246512
-0.0202326  0.0256136  0.0841328
-0.419902 -0.372896  -1.05396
-0.318217  0.381062 0.0701398
   0.269934 -0.00879521  -0.0977352
0.0259168 -0.348693 -0.932736
 0.273835 -0.404253  0.720694
 0.230717 -0.703006  0.241322
  0.31293  0.162218 -0.281323
 0.0136606  0.0179728 -0.0643973
 0.862922  0.155226 -0.275654
   0.376911 -0.00782665     1.29985
  0.323156 -0.0224421   0.335506
-0.0772752  -0.852973   0.162709
  0.336947 -0.0171882  -0.186481
  0.22824 0.0186435 -0.053704
-0.572124  0.107107  0.204495
 0.337625 -0.215819  -0.40779
0.150662 0.529675 0.225178
-0.0524598  -0.512057   0.331801
  0.251037 0.00169247  0.0773304
-0.0858475  -0.427522   0.213793
0.0843142 -0.253516  0.176261
-0.250226 -0.270806  0.658479
 0.201869 0.0485497  0.260543
0.253238 0.191344 -1.05822
-0.431892 -0.106445  0.219641
0.00411602  0.0110076  -0.137999
-0.0529969    1.17133   0.107914
 0.538396  0.854475 -0.118384
0.0646595 0.0250955  0.407195
  0.54674  0.359437 0.0741338
-0.323782  0.284027  -0.46679
  0.240103 -0.0107822  0.0558617
 -0.340302 -0.0155809  -0.226699
-0.00733798   -0.849024    0.117571
-0.00814203  -0.0174206    0.132345
-0.0779316   0.445395   0.688606
0.00496379   0.549629     1.2019
 0.0173959   -1.36004 -0.0921848
-0.239576 0.0166431 0.0857959
 0.245933 0.0147732  0.147847
  0.0177467 -0.00913963   0.0465434
-0.00502715   0.0111136   -0.104731
 -0.46369  0.576756 -0.298082
-0.243923 0.0189953 0.0513143
   0.538315 -0.00842573    0.285124
  0.0316004 -0.00415085    0.869889
 -0.224745 -0.0405384   0.226272
 -0.244118  -0.019206 -0.0902898
-0.232892 -0.138026 -0.248424
 0.0372039 -0.0338504   0.160952
   0.253132 -0.00339104   -0.104687
-0.00896149   0.0103049   0.0042499
  0.304403 -0.0455349     0.1487
-0.00925135  -0.0132055  -0.0580229
   0.260675 -0.00289732   0.0394607
-0.242129 0.0937622 -0.249847
 -1.04136 -0.533627 -0.166497
0.0471106 0.0841092  0.398909
 0.245851 0.0174979 0.0745353
  0.692712  -0.242708 -0.0972386
 0.0220987 -0.0136077   0.109161
-0.265274  0.164055 -0.341413
-0.492383 -0.626831 0.0591396
  -0.26208 -0.0249977 -0.0704247
-0.257075 0.0297124  0.005272
0.0682352  0.138932  0.437429
0.486281 0.133886 0.344284
  0.678154  -0.273411 -0.0871499
-0.141285 -0.645965   1.03002
-0.381202  0.105281 -0.592637
0.0917547 -0.903906 -0.153042
-0.00760995   -0.480225   0.0403819
 0.201202 0.0444006 -0.216163
 0.270677  0.035226 0.0419481
-0.544257  -0.31071 -0.166576
 0.190816 -0.356371  0.191616
0.220098 0.728441  0.18619
0.0222381  -1.26855 -0.133985
  0.73721 -0.717012 -0.677433
 -0.911589 -0.0701945   0.528089
  0.439992  -0.863025 -0.0328952
   0.22055 -0.0462961  -0.123878
 0.0221525 0.00897318  -0.202422
  0.241815 -0.0132069  0.0813316
 0.711939 0.0990019  0.179726
  0.207863 -0.0833614  -0.276668
 -1.20463 -0.346449  0.453032
-0.615558 -0.161572  0.115238
0.000908306  0.00350239  -0.0807346
-0.741235  0.388151  0.224384
-0.0063519 -0.0140413  0.0845646
-0.474278  0.361533 0.0703371
 -0.189305 -0.0673607  -0.370316
-0.00768354  -0.0113654  -0.0155813
 0.285358 -0.121507  0.256605
-0.666217  0.177907  0.397859
-0.261664  -0.77426 0.0330812
 0.239759 0.0254986 0.0301605
 0.213291  -0.54492 -0.163159
 0.577738  0.674296 -0.632408
 0.0234546 0.00774206  -0.167248
  0.262944 -0.0161447  0.0247675
-0.324605 0.0348218  0.156084
  0.241484 -0.0100496  0.0338629
0.0156173  0.471179  0.828559
0.163189 0.664498 0.216382
 -0.0372405 0.000985051   -0.919307
-0.000831458   0.00674139     0.129691
 0.139822  0.351305 -0.261436
  0.25999  -1.27423 0.0628202
-0.663271 -0.286118 -0.405343
  0.227572 -0.0219768 -0.0479308
-0.144341 -0.459218 -0.147746
  -0.730151   -0.208741 -0.00166759
    0.24202 -0.00398523    0.164508
-0.0723019   0.549731   0.167179
 -0.0211359  -0.0220733 -0.00750108
-0.604138 -0.280568 -0.258218
   0.250872 0.000947919   0.0179478
 0.291951 -0.282872 -0.560936
 0.671261  -0.21157 -0.506513
0.125691 0.218835 0.349819
0.000239441 -0.00126255   -0.019266
-0.000680776  0.000252449    0.0560947
   0.704256 -0.00936883   -0.183857
-0.0678652   0.588772   0.700413
  -1.37472 -0.0770229    0.28186
-0.240428 0.0120278 0.0635985
  0.26962 0.0425066  -0.15318
-0.233712 0.0322335 -0.146782
0.0552069 -0.614684  0.154671
0.0697006 -0.704234  -0.83953
0.546795 -0.32237 0.454792
 0.228593  0.288315 -0.836231
 0.0106896  0.0144278 -0.0787587
 0.0409796 0.00148467  -0.843182
 0.0227496 -0.0209401 0.00927369
  0.237612  0.0135441 -0.0411976
-0.0192895    1.22565  -0.082072
0.00309603 0.00823515 -0.0976402
 -0.705263  -0.542068 0.00034179
-0.524673  0.185499 -0.478658
 0.00248394 0.000560274  -0.0249812
  0.743016 -0.0982127   0.342482
 0.0773403    1.05357 0.00524911
 0.749144  0.934167 -0.639828
