-0.000831458   0.00674139     0.129691
    0.24202 -0.00398523    0.164508
 -0.0166345  -0.0173576 -0.00759751
 -0.241998 -0.0272971   0.133767
 0.268901  0.040756 -0.154727
-0.00510538  -0.0212174   -0.261026
  -0.254666 -0.00321345   0.0942358
 0.0103487   0.013334 -0.0711655
-0.00490671   0.0189508    0.128362
 0.0106006  0.0142699 -0.0787966
0.00309603 0.00823515 -0.0976402
 -0.256779  0.0274993 0.00981178
 0.749144  0.934167 -0.639828
   0.203846 -0.00087759   -0.115647
-0.280484 0.0486874  0.139783
 -1.62823 -0.247038 -0.408114
    0.250999 -0.000285862    0.0517116
 -0.012245 -0.0162075   0.105257
-0.296757 0.0347867  -0.12749
   0.122634 0.000717181    0.896599
0.0109702 0.0198452 -0.125698
 0.0190098 -0.0156892 -0.0467412
0.00646833 0.00991847 -0.0816484
  0.275825 -0.0637857  -0.183562
-0.00612676 -0.00842259   0.0630289
0.0312177 0.0441394 -0.148594
 -0.20528 0.0443427 -0.185892
0.0112121 0.0338586  0.176658
0.0167606 -0.015285 -0.052319
 -0.231169 -0.0104822  0.0891469
   0.234283 0.000107773   0.0981312
 -0.219307  0.0183677 -0.0791256
-0.0117583  0.0124237 -0.0263104
 0.0176901 -0.0208621 -0.0825699
  0.215562 -0.0309834   0.183562
-0.00677769    0.010557  -0.0455722
  0.262183 -0.0255307 -0.0277626
0.0223959  0.029071 -0.154062
-0.205744 0.0341883 -0.130717
 -0.214123 0.00922558   0.265878
 -0.255288 -0.0385846   0.147824
-0.0166625  -0.029614   0.105771
0.0154288 0.0211594  0.108286
 0.00177212 -0.00572352   0.0913799
-0.00121363  0.00360929  -0.0644715
  0.223615 -0.0396613   -0.23804
-0.00307475  0.00695995  -0.0405069
-0.0103446 0.00258282  0.0505513
  0.323099 -0.0313466   0.162174
 -0.272323  0.0363455 -0.0925782
-0.00176909  0.00856021    0.137673
 -0.270878 -0.0452004    0.10951
-0.00116041   0.0129595    0.406977
  0.23258 0.0241982 -0.137523
  0.262726 -0.0293076  0.0107304
 0.264432 0.0126297 -0.163618
-0.00263309  0.00442659   0.0580711
0.0101459  0.287136   -1.2635
 -0.256128 -0.0372968   0.162207
-3.94427e-05  0.000830659   -0.0535173
  -0.256144 -0.00807121   -0.020835
-0.266821 0.0229035 0.0917422
-0.288454  0.029477  0.127653
 -0.225609 0.00489081   0.105182
0.000695519  0.00746672   -0.131348
 0.306225 0.0723648 -0.180703
-0.0123186   0.015214  0.0773829
0.0173297 0.0224407  0.125722
   0.269111 -0.00807209   -0.415529
  -0.26208 -0.0249977 -0.0704247
 -0.254817  0.0250326 0.00545951
0.00408211   0.162137    1.20867
-0.269289 0.0201598 0.0977097
 0.309202 0.0538449 -0.263648
 0.268491 0.0328371 0.0422842
 -0.233928 -0.0111028  0.0879946
  0.226195 -0.0373875  -0.130157
 0.0221525 0.00897318  -0.202422
-0.00972903  -0.0105944   0.0587124
0.000838387  0.00280864  -0.0808883
0.00357637  0.0332201    0.42175
-0.00370481 -0.00795901   0.0862287
-0.00573567 -0.00810447  -0.0157198
  0.268194 -0.0238479    1.02732
 -0.293888 -0.0161043    0.15619
0.000526473  0.00552547   -0.180488
0.0225283 0.0158028 0.0878601
  0.261423 -0.0151362  0.0249234
-1.03533e-05  0.000861424   -0.0520951
0.253238 0.191344 -1.05822
0.00406669  0.0109988  -0.138018
  0.00944065 -2.51076e-05     0.674199
 -0.215512 0.00518376  -0.146775
 -0.268222 -0.0129958  -0.172942
-0.00797031  -0.0171444    0.132503
 -0.215309 -0.0358272   0.178966
   0.250567 0.000438608   0.0322924
  0.0177467 -0.00913963   0.0465434
-0.00464722   0.0100713   -0.105093
 -0.29737 -0.031615 -0.168952
-0.00896149   0.0103049   0.0042499
  0.304403 -0.0455349     0.1487
-0.00836845  -0.0119891  -0.0582619
0.0842465 -0.999952  0.305821
   0.250854 -0.00103553   0.0405697
 -1.15196  -0.60733 -0.190015
 0.245851 0.0174979 0.0745353
 0.0220987 -0.0136077   0.109161
 0.000202888 -0.000274891    0.0786842
 0.263455 0.0216525  0.238726
 -1.02517  0.533266 -0.659622
  0.270819 -0.0361726  -0.113137
 0.0162984  0.0121354 0.00141047
-0.254503 0.0161727 0.0700564
-0.0143845  0.0207154  0.0860508
-0.419902 -0.372896  -1.05396
   0.256215 -0.00515075   -0.103452
 0.0095017  0.0125752 -0.0656072
 0.271008 -0.039608 0.0781409
  0.323156 -0.0224421   0.335506
-0.284467 0.0118226 -0.118687
  0.251272 0.00173295   0.077375
   0.250961 0.000211034   0.0427499
-0.0154866  -0.024073  -0.133107
 -1.43834 -0.661761  0.501133
  0.262544 -0.0136904  -0.076182
-0.00929387   0.0154578  -0.0713211
0.0358282 -0.610787  0.980129
 0.217024 0.0181736  0.195073
 -1.03881 -0.901531 -0.160898
 0.0191586 -0.0151877 -0.0338668
 0.981865  0.551865 -0.536962
 -0.012881 -0.0200811    0.15858
    0.251153 -0.000667066    0.0507995
  -0.222013 -0.00417662    0.104634
    -0.25668 -0.000177179     0.178252
-0.00928448  -0.0178578    0.142417
 0.0186678 -0.0155909 -0.0390906
  0.215614 -0.0248355   -0.16287
  -0.28145 -0.0583941  -0.131194
-0.0066128 0.00912549  0.0173261
  0.261538   -0.01848 -0.0284352
 0.00711253 -0.00761977   0.0303333
   0.251231 -0.00134794   0.0463859
 0.0107418 -0.0121042 -0.0710103
 0.00644815 -0.00269264   0.0278554
-0.000480468  -0.00478062     0.102771
 0.261431 0.0291244 0.0561628
 0.253581 0.0023393  -0.09613
 -0.247785 0.00385225 -0.0979827
-0.252611 0.0221746  0.116413
-0.00251117 -0.00435103  -0.0853786
0.119737 0.193343 0.206442
 -0.275864    0.01603 -0.0979497
-6.33105e-05  -0.00226363    -0.172014
 0.246544 0.0181515 0.0759019
 0.248128  0.031192 0.0933586
0.0323931 0.0399661 -0.274947
 0.262863 0.0426128  -0.07523
  0.304932 -0.0312444   0.165278
  0.271934 -0.0334279  -0.111237
-0.00032775  0.00162437   -0.016375
  0.015874 -0.0264128   -0.13935
0.00322075 0.00955335   0.121553
  0.324854 -0.0248904   0.168164
-0.000939921   0.00473777   -0.0871791
  1.21489 -0.647475 0.0149642
 0.0117194 -0.0121296 -0.0304523
  0.278564 -0.0523603  -0.143202
-0.287923 -0.025447  0.158741
 -0.0021275 -0.00210763   0.0597417
 -0.271151 -0.0514133  -0.120351
-0.254871    0.0212  0.161835
0.00266359 -0.0053046 -0.0980549
 0.0192699 -0.0212876 -0.0786577
-0.0740632   -1.01629  -0.326146
-0.00151475  0.00929151    0.461692
  0.255001 -0.0055252  0.0486294
-0.456334   1.34678  0.107108
  0.251948 0.00231959  0.0386536
  -0.26104 -0.0133022 -0.0889834
0.0266149 0.0408609  0.190299
-0.00812281  0.00979953   0.0383094
-1.25363 0.176113 0.448139
-0.278303 0.0506075  0.137347
 -0.219411  0.0178122 -0.0807579
-0.296118 0.0485993 -0.146837
0.0329984 0.0406202 -0.271122
-0.00652363 -0.00868527   0.0655936
 -0.271656 -0.0068308   0.102839
  0.017208 -0.0243817   0.131515
 0.859446  -1.18121 -0.660966
-0.00650486 -0.00897451   0.0668293
-0.296497 0.0229838 -0.168961
-0.0137468 -0.0279914   0.188293
0.0159475    0.8255  0.726774
-0.00176468  0.00410867 -0.00417107
 -0.262937 -0.0159579  -0.044903
-0.0230284   0.035428   0.175777
0.0236279 0.0584344 -0.170912
0.00972619  -0.011851  0.0466248
  0.266968 -0.0281317 -0.0017171
-0.0281542  0.0244937  -0.120646
  -0.27655 -0.0567819  -0.136019
-0.0651519   0.532995   -1.06259
 -0.261048 0.00929163  0.0967339
0.0105137 0.0086409 0.0382979
    0.263094   -0.0163484 -0.000668071
0.00758472  0.0526492  -0.180441
  -0.221974 -0.00347618    0.128519
   -0.21299 -0.00236204   -0.149938
  0.262716 -0.0154593   0.105067
-0.0172053  0.0206274   0.101766
 -0.229825 -0.0091514  -0.123072
 0.257508 0.0105016 0.0216074
-0.0294145  0.0221269  -0.163575
0.000180201  0.00047555   -0.119619
   0.296775 -0.00322986    0.339636
 0.00998261 -0.00857335 -0.00361091
0.000738796  0.00331491    0.130407
-0.0236943  0.0290307    0.14107
-0.00594728 -0.00944674  -0.0924286
-0.0117799    1.05091   0.396735
0.00101682  0.0124129   0.179562
-1.16688 0.167924  -0.6809
 0.257144 0.0101979 -0.035365
 -0.271056 0.00187547   0.135987
-0.0471212  0.0261428   0.191377
0.00449359 0.00544697 0.00753401
 -0.251822  0.0194376 -0.0231132
 0.268279 0.0354674 -0.119892
-0.00387175 -0.00608888  -0.0811073
 0.265351 0.0242702 0.0790445
-0.00472598   -0.262188     1.17974
-0.891759  -0.79347  0.444427
 -1.41227  0.733287 -0.120745
-0.00604725  0.00733309 -0.00186363
 -0.0155146 -0.00514484   -0.131006
-0.00379327 -0.00588182   0.0120804
   0.253849 -0.00358027    0.032954
-0.215717 0.0112054  0.103934
 -0.210722 -0.0270163  -0.134926
 -0.284567  0.0173521 -0.0931951
    0.250934 -0.000445094    0.0638115
 0.00340246 -0.00727684   -0.110255
 0.278353  0.024777 -0.139919
-0.0239298  0.0157937  -0.187702
-0.222346 0.0301904 -0.100133
  0.254719 0.00867252 -0.0314295
-0.205331 0.0367755  -0.15305
-0.00249561  0.00552638   0.0882873
  0.227339 -0.0243423  -0.111053
-0.278344 0.0388473  -0.12252
  0.266809 -0.0224058  0.0761665
0.0191513 0.0201187 -0.100388
-0.0146354  -0.028478     0.1942
0.00121877 -0.0127698  -0.183862
 0.0189261 -0.0227995 -0.0871973
 -0.259233 0.00965571 -0.0608494
 -0.298262 -0.0266266   0.216545
  0.256065 -0.0286039   -0.14577
 -0.228178 -0.0187144   0.116448
 0.256196 0.0451198  0.217763
  0.223052 -0.0347641   0.223958
0.00306922 0.00474621 -0.0278287
 -0.220119 0.00190246   -0.16135
-0.0195157  0.0423632  -0.129987
-0.00718233  -0.0126821   0.0958588
-0.0684593   0.546962   -1.10081
-0.00754537  -0.0452452   -0.488804
 0.0101213  0.0162085 -0.0968689
0.00738382 -0.0158363   0.138292
  0.252439 -0.0238106  -0.069525
  0.230883 -0.0532386  -0.164553
 0.0182802  0.0119809 -0.0300888
-0.00851072 -0.00691125   -0.068166
 0.285054 -0.023163  0.477279
  0.251439 0.00165046  0.0727421
0.00060702  0.0036305 -0.0725414
 0.248039 0.0187093 0.0744624
0.000696679  0.00630394   -0.120304
-0.0182445  0.0217735   0.101449
   0.247977 -0.00837038    0.159562
-0.00311546  0.00535979   0.0765241
  -0.22305 -0.0236163   0.112186
 -0.294224 -0.0476457   -0.15755
0.00100994   -0.15559    1.26615
-0.265868 0.0217116 0.0878874
 -0.213228 -0.0388258   0.130394
-0.00734064  -0.0306385   -0.171937
 0.0169363 -0.0229159   -0.11535
  -0.277247 -0.00232088  -0.0692402
0.000865877 -0.00280315   0.0803059
-0.00172353 -0.00449254  -0.0744186
-0.00310071  0.00737217  -0.0399802
  -0.208566 -0.00570716   -0.158339
-0.00339099 -0.00393431  -0.0277853
  0.249807 -0.0198244 0.00194712
  0.238887 -0.0156151   0.123987
  0.251946 -0.0233727   0.141798
-0.0127004 -0.0249058  -0.134365
-0.00234916 -0.00477383   0.0320614
  0.270295 -0.0261343  -0.118179
  0.271543  0.0304805 -0.0809559
 -0.291527 -0.0536507   0.163161
0.00953039 -0.0105991  0.0608971
 0.287031 0.0481864  0.123186
-0.0144853   -0.03425  -0.185334
0.00742231 0.00726473  0.0761618
-0.00179013   -0.012839    0.122711
 -0.249503  0.0331774 -0.0928611
-0.000959468   0.00678807     0.125014
 0.0157158 -0.0207396  -0.107896
0.0396577  0.043421 -0.264077
0.000520806 -0.00474495   -0.233295
 -0.283071 -0.0323879    0.35867
 0.0185588 -0.0118125 -0.0588722
-0.00870886  -0.0115653   0.0794187
0.000768483  0.00308144    0.130305
  0.250887 0.00109825  0.0342022
-0.262183 0.0102014  0.100711
  0.251061 0.00161878  0.0400182
 0.287791 0.0338913  0.137499
-0.29411 0.063284 -0.39692
 0.0217375 -0.0408207   0.222853
0.00489298  0.0115828  -0.121727
-0.0104047  0.0224447 -0.0545266
-0.0261882  0.0230972  -0.111867
 -0.217683 -0.0191524   0.114649
0.00154547  0.0034963   0.125912
 0.0124844 -0.0112895  -0.001518
  -0.27478 -0.0249887  0.0984692
  0.254943  0.0285487 -0.0664813
 -0.261135 -0.0127356  0.0236061
   0.249803 -0.00622133   -0.128229
-0.255167 0.0443472 -0.102217
-0.0168689 -0.0104233 -0.0854714
-0.00722579   0.0103274   0.0296548
 -0.295775 -0.0810876  -0.200212
0.0256029 -0.677652 -0.821782
   0.26165 -0.0121179   0.087287
-0.00233727    0.017101    0.886508
-0.0044324 0.00636102  0.0107305
  0.205287 -0.0412494  -0.188776
-0.0087456  -0.013852  0.0968859
-0.0443858 -0.0904575   -0.24576
 0.00150279 -0.00302436    0.120414
-1.18866    1.049 0.665237
    0.23312 -0.00107578    0.128842
0.0110507 0.0181538  0.131701
-0.00173499  0.00372746  -0.0596136
-0.00434956   0.0060127   0.0690982
-0.289907 0.0395832 -0.117651
 0.268976 -0.029683 0.0976298
-0.272834 0.0450444   0.19768
 -0.313263 -0.0464341  -0.215921
-0.0206549  0.0321775  -0.130865
 1.37571 -0.42365 0.690365
  0.269957 -0.0195832 -0.0618955
  0.256448 0.00777899 0.00820406
 0.0022636 0.00349435 -0.0167458
  -0.251859 0.000897231   0.0647843
  0.264099 -0.0190799  0.0698257
-0.00446186   0.0089395  -0.0426384
8.18675e-05 -0.00163761    0.104098
  0.252595 0.00240381  0.0687578
-0.0222371  0.0193532  -0.100527
 -0.261072 0.00976517  0.0961791
  0.212132 -0.0466157  -0.147508
 -0.269624 -0.0292439  0.0601479
-0.214309 0.0125288   0.12139
   0.255826 -0.00294385   -0.144904
   0.318079 -0.00656318     0.15498
 -0.268059 0.00186275  -0.094142
 0.268362 0.0150735 -0.186229
 -0.123443 0.00847847 -0.0601373
 -0.290946 -0.0497628   0.163467
-0.0120585  0.0301458   0.157657
   1.1431  0.549339 -0.241994
 -0.22657 0.0360525 -0.133746
 0.264689 0.0160598 0.0322907
0.0182202 0.0177533 0.0802505
0.000504909 -0.00211091    0.108311
-0.00132978  0.00281389   0.0591453
-0.0119036 -0.0178384  -0.144093
 0.290753 0.0501304   1.17724
 0.280954 0.0586273 -0.156076
   0.252237 -0.00234914   0.0248457
-0.269801 -0.016325  0.160511
  0.263689 -0.0171261 -0.0754242
 -0.21501 0.0057252 -0.150232
-0.221945 0.0145702  0.122468
 -0.266389 0.00665498   0.356588
-0.000201238   0.00386317    -0.111221
0.0107316 0.0114465  0.151561
0.000358584  0.00369608  -0.0918062
0.000997355 -0.00165276    0.137567
-0.106124  -1.11333  -1.14742
-0.102681   1.03533 -0.285201
 -0.024966 -0.0409176  -0.166327
0.0169275 0.0131926 0.0803968
   0.253275 -0.00303486   0.0801468
  0.264758 -0.0177801  0.0749756
0.00015289 -0.0111566  -0.218234
0.0101789 0.0193738  0.199543
 0.251632  0.029478 -0.169816
  0.221634 -0.0390547  -0.152032
-0.00126622   0.0131033    0.239199
  0.251203 -0.0012175  0.0250166
-0.228165 -0.012433  0.123675
-0.36343 -1.25473 0.524554
-0.270616 0.0163219  0.195721
-0.285574 0.0297256  0.116339
0.0344973 0.0343835  0.202507
-0.00936745   0.0114641   0.0425908
0.00144387 0.00635382   0.154849
   0.243004 -0.00549396   -0.117166
0.0156919 -0.024659 -0.205746
  -0.26422 -0.0521663  -0.122964
-0.272899 0.0225807  0.109253
0.000759558  0.00129148    0.112711
 0.255336 0.0634113 -0.179037
 0.244436 0.0455035 -0.166777
 0.261855 0.0122033 0.0341044
 -0.229554  0.0274505 -0.0912628
-0.0143401   -0.03507   -0.18149
 -0.231291 -0.0306041   0.106057
-0.0402682 -0.0873362  -0.228265
-0.0138387  0.0186276   0.091189
0.0143383 0.0361273 -0.142004
 0.273335 0.0284458  -0.12678
-0.000966053  -0.00658129     0.120014
0.00957463 0.00887007  0.0469931
 0.0103331 -0.0127286  0.0434514
 -0.273875 0.00526188 -0.0913341
-7.50051e-05  -0.00148506   -0.0751128
 -0.285498 -0.0484535   0.117787
 -0.267472 0.00518035  -0.355108
  -0.254279 -0.00280656   0.0911893
 0.309067 0.0525572  0.173518
  -0.261623 -0.00278794   -0.115724
-0.0100772   -0.01179 -0.0317712
0.290982 0.019086 0.221391
-0.010398 0.0249592 -0.203022
 -0.316037 -0.0481606  -0.220256
 -0.294484 -0.0172928   0.243768
  0.239428 -0.0260228  -0.166112
  0.260786  0.0105033 -0.0635486
0.00537128 -0.0131989  -0.145789
 0.250302 0.0201554 0.0486737
 -0.10164 -0.812425  -1.12575
 -0.245174 -0.0125418   0.208126
  0.225076 -0.0435075  -0.145875
 0.0114125  0.0100083 0.00428345
  0.290503 -0.0529336  -0.162616
   0.252104 -0.00242463    0.100183
  -0.304373 -0.00929368    0.241265
  0.268537 -0.0393028  0.0355903
 0.291623 0.0732341 -0.182683
-0.252683 0.0476545 -0.173664
 -0.219735  0.0174058 -0.0855547
 -0.283411 -0.0557011  -0.151915
-0.000219689  -0.00218161    0.0444703
   0.253132   0.0287788 -0.00524411
   0.254323 -0.00165599    0.111323
  0.266291  0.0187434 -0.0661302
  0.250736 0.00170258  0.0615199
    0.27177 -0.00319619   -0.653225
 0.269749 0.0240116 0.0341935
  1.48318 -0.453589  0.261444
0.000461251  0.00413898       0.143
-7.50218e-05  -0.00115254    0.0916142
 -0.26274 0.0131389 0.0908103
  0.302486 -0.0551442   0.175552
 0.0233539 -0.0167741  -0.025298
0.121068 0.193527 0.204189
   0.250162 -0.00573413   -0.124637
   0.1966 0.0271435 -0.201995
 0.00450472 -0.00819845   0.0942308
0.00557822 -0.0108637   0.127172
  0.26717 0.0382062 -0.090736
0.0243388 0.0308975  -0.15744
 -1.3575 0.200601 0.323008
0.000199693 -0.00249095   0.0460092
-0.00894463   0.0158675   -0.120305
-0.00473661 -0.00824737  -0.0861118
  0.233091 -0.0464715   0.234879
 -0.262939  0.0198721 -0.0445666
 -0.225243 -0.0197074  -0.126642
3.37441e-05  0.00656408   -0.135705
-0.00936846    0.010387  -0.0313292
0.00611194 0.00774279 -0.0521054
 0.0253504 -0.0197019   0.101132
  -0.230252 -0.00933498    -0.10193
 -0.286383 -0.0298348   0.161672
-0.00629765  0.00845931   0.0303552
 -0.278869 -0.0380827  0.0949709
 -0.230502 -0.0174907  0.0904385
  0.0142273 -0.00506037   0.0820363
  0.254433  0.0308373 -0.0509573
   0.253191 0.000797573    0.103558
   0.254516 -0.00350613   0.0922038
   0.27348  0.0331192 -0.0720126
0.0198304 0.0303548 -0.196649
  -0.259363 -0.00214749    0.209587
 0.0097258 -0.0119366  0.0698529
 0.0159043 -0.0282548  -0.179084
-0.241859 -0.024151 0.0946771
 0.0136785  0.0101483 -0.0351285
-0.0112157 -0.0122136  -0.039072
 0.255191 0.0178264 0.0157177
0.0167787 0.0234977  0.134148
  0.280978 -0.0365853   0.123022
 -0.277351 -0.0366079  0.0848242
-0.0149084 -0.0214147   0.104612
 0.265073 0.0582269  0.122598
  0.254856 0.00932072 -0.0224322
0.0119838 0.0486221  0.341703
   0.26252 0.00561273  -0.229066
0.00018474 0.00391463   -0.15961
  -0.273081 -0.00186023   -0.106997
 0.263504 0.0176961 0.0419557
0.0161769 -0.020613 -0.118317
-0.00876508   -0.112339   -0.636954
  0.243716 -0.0130053  -0.140673
  0.264955  -0.016776 -0.0909595
 0.106231 -0.909438  0.682927
-0.00219394  -0.0134528   -0.220462
 -0.275143 -0.0220159   0.166835
-0.0149102  0.0202132  0.0913902
-0.273093 0.0130711 -0.323597
    0.253408 -0.000597625      0.10983
4.37355e-05 -0.00251628    0.103208
  0.208504 0.00195785 -0.0829538
 -0.264958 -0.0170492   0.032254
-0.00566574   0.0100701    0.114618
 -0.0038074 0.000982586   -0.150637
 0.293255 0.0662268 -0.155582
-0.0183042 -0.0214095 -0.0926468
  0.28474 0.0534801   0.15573
-0.00107501  0.00502366  -0.0273474
-0.250337 0.0152208 0.0571676
  0.263373 -0.0262655 -0.0628897
 -0.269081 0.00272609   0.143307
 -0.263057 -0.0358985   0.105425
    0.25081 0.000454582   0.0427814
-0.291607 0.0172307 -0.122729
   0.22541 0.00103516   -1.15255
  0.262544 -0.0196674 -0.0390887
 -0.231281 -0.0289992   0.108582
-0.00289873  0.00676907    0.110085
-0.0141403  0.0523463   0.222348
  0.262523 -0.0312278  0.0123513
  0.0196194 -0.00481096  -0.0511934
0.0177511 0.0216186 -0.119558
  0.0103879 -0.00517895   0.0324462
  -0.25929 -0.0462268  -0.120822
0.000131482  0.00481422  -0.0999524
-0.00351184 -0.00545361   0.0675618
0.000255873  0.00262763   -0.166015
 0.00350459 -0.00744923     0.10151
  -0.270551 -0.00952447    0.123649
  0.261115 0.00974085  -0.135309
 -0.266396 -0.0196423  0.0334642
-0.194207   1.24589  0.330825
  0.267721 -0.0261176 -0.0790581
0.00891893 -0.0099429 0.00305772
 0.00424726 -0.00804357    0.113988
 0.00205157 -0.00522302    0.588631
 0.312647 0.0183103  0.218939
  0.262621 -0.0227147  -0.038645
0.00400553 -0.0119868  -0.143765
0.00307734 0.00388537 -0.0395546
 0.0182629 -0.0145749  0.0186257
 0.294074  0.291486 -0.987148
  -0.29243 -0.0285878   -0.17133
 0.287114 0.0528793 -0.136394
 0.247231 0.0228585 -0.100171
-0.00073836 -0.00356027   0.0801923
  -0.27187 -0.0209224  0.0892332
0.00425015 0.00664583 -0.0610714
-0.00916691  -0.0162166   -0.132889
0.000480276 -0.00391174  -0.0981888
 -0.0122832 -0.00849906  -0.0531595
0.00491457  0.0350964  -0.166034
  0.23123 -0.052751  0.207517
  0.259599 -0.0138917  0.0529707
-0.00635298  -0.0085871   0.0669587
-0.0030841  0.0249317   0.501115
0.000346201 -0.00106586    0.104439
