-0.000831458   0.00674139     0.129691
 -0.0211359  -0.0220733 -0.00750108
 0.0231665 0.00825373   0.428103
   0.250872 0.000947919   0.0179478
 0.216162 0.0260492 0.0135319
-0.214689  -0.46868  0.510534
-0.0637477  -0.465553  0.0257722
 -0.317616 -0.0478042  -0.154999
 0.0106896  0.0144278 -0.0787587
  0.237612  0.0135441 -0.0411976
 -0.262514  0.0385797 0.00915974
 -0.316251 -0.0221604  -0.151012
-0.0161452 0.00773128 -0.0699182
-0.0711055 -0.0457393   0.328784
-0.226482 0.0109737 0.0299865
-0.305114 0.0392009 -0.119639
0.0158128 0.0281765 -0.121308
 0.0230061 -0.0197109 -0.0460195
 0.0459877   0.402023 -0.0744173
 -0.359698 -0.0306823   0.233708
0.0312177 0.0441394 -0.148594
 0.387226 0.0422941  0.236099
   0.248653 -0.00879972   -0.100802
 0.227259 0.0392797  0.134834
-0.0117583  0.0124237 -0.0263104
  -0.251172   0.0014832 -0.00168309
  0.215562 -0.0309834   0.183562
 -0.246835 -0.0154695  0.0413455
  0.262183 -0.0255307 -0.0277626
-0.00968957 -0.00596921  -0.0129109
  0.338499 -0.0315999   -0.26242
0.0165171  0.023143  0.107465
-0.00125559  0.00387395  -0.0644251
-0.00358502  -0.0160259  0.00510809
-0.242257 0.0180448  0.037219
  0.213412 -0.0232337  0.0478028
 -0.236535 -0.0149486 -0.0413286
0.0247863 -0.603761  0.180605
-0.00218756  0.00712694   -0.107159
 -0.21437 0.0964503  0.179147
 -0.274431  0.0388692 -0.0908226
-0.00179125  0.00868036    0.137614
 -0.245084 -0.0236457 0.00986479
 -0.270878 -0.0452004    0.10951
   0.235948 -0.00354156  -0.0836039
-3.65836e-05   0.00131203   -0.0130184
 -0.256128 -0.0372968   0.162207
-0.000709443    0.0039583   -0.0279477
-3.94427e-05  0.000830659   -0.0535173
  -0.256144 -0.00807121   -0.020835
-0.00781201    0.581474    0.163711
-0.266821 0.0229035 0.0917422
-0.305503  0.039939    0.1133
-0.208082  0.007399 0.0982685
0.00140091  0.0242342  -0.124012
  0.263244 0.00455063  0.0107331
  -0.26208 -0.0249977 -0.0704247
-0.257075 0.0297124  0.005272
 -0.501834 -0.0969477  -0.142678
 0.201202 0.0444006 -0.216163
 0.270677  0.035226 0.0419481
-0.314528 0.0377627 -0.146331
 0.0221525 0.00897318  -0.202422
-0.120904  0.654652 -0.296923
 0.210185 -0.480812  0.311018
  0.332414 -0.0875329   -0.25307
0.000908306  0.00350239  -0.0807346
-0.0063519 -0.0140413  0.0845646
 0.123231 -0.408404 0.0093301
 0.0234546 0.00774206  -0.167248
  0.262944 -0.0161447  0.0247675
-0.324605 0.0348218  0.156084
  0.241484 -0.0100496  0.0338629
0.00411602  0.0110076  -0.137999
  -0.170135 6.33638e-05   -0.116189
-0.00814203  -0.0174206    0.132345
 0.193019  0.500751 -0.105215
  0.0177467 -0.00913963   0.0465434
  -0.343773 -0.00989673     -0.1648
 -0.224745 -0.0405384   0.226272
 -0.244118  -0.019206 -0.0902898
 0.263476 -0.100258  0.206792
 0.0372039 -0.0338504   0.160952
   0.253132 -0.00339104   -0.104687
-0.00896149   0.0103049   0.0042499
  0.304403 -0.0455349     0.1487
 -0.315826 -0.0780349  -0.158602
-0.00925135  -0.0132055  -0.0580229
  0.19211 0.0660079  0.199108
   0.260675 -0.00289732   0.0394607
 0.245851 0.0174979 0.0745353
-0.00107911     2.45416  -0.0195515
 0.0220987 -0.0136077   0.109161
  0.235273   0.015601 -0.0373071
  0.272268 -0.0383948  -0.111679
 0.0166859  0.0124743 0.00140969
0.0779368   1.48999   0.33656
-0.247011 0.0351778  0.156669
 -0.239724 0.00967008  0.0158534
-0.250545  0.127864 -0.161204
   0.23985 -0.0125985  0.0643803
-0.254517 0.0161945 0.0700483
-0.0202326  0.0256136  0.0841328
   0.269934 -0.00879521  -0.0977352
  0.197373 -0.0265689    0.38624
 0.0136606  0.0179728 -0.0643973
   0.376911 -0.00782665     1.29985
  0.323156 -0.0224421   0.335506
-0.328089 0.0652166 -0.185562
  0.229666 -0.0649033  -0.115705
  0.251037 0.00169247  0.0773304
  0.212329 -0.0586114   0.151641
  0.268055 -0.0159564  -0.074404
 0.233826  0.020903 0.0105091
 0.0473352 -0.0774069   0.181499
 0.195376 0.0445505    0.1765
-0.211939 0.0607322   0.22338
-0.0237069 -0.0232564   0.152066
0.237064   0.6767 0.279793
-0.0217658  0.0444219  -0.157721
-0.0138549  -0.300225   0.225527
 -0.0104126 -0.00843205   0.0271777
 -0.288675 -0.0718734  -0.118042
  -0.182791 -0.00842795    0.169298
 -0.246256 0.00108637 -0.0355735
  0.270571 -0.0255332 -0.0274032
0.00741586 -0.0090928  0.0301803
 0.0107418 -0.0121042 -0.0710103
 0.185267  0.108473 -0.170322
 0.103782 0.0442732  0.181548
 -0.0216554 -0.00857352   0.0976456
 0.162373 0.0012368  0.211492
  -0.30991 -0.0284782   0.143546
  -0.217928 -0.00375906    -0.08745
  0.255808  0.0599041 -0.0818126
 -0.280367  0.0176972 -0.0955057
-0.322094 0.0798559  0.375021
 -0.15532 -0.381753 -0.130861
  0.0138867 -0.00151716   -0.164697
 0.248128  0.031192 0.0933586
 0.012807 0.0467463 -0.135846
0.0621661 0.0482031 -0.217679
 -0.234566    0.02734 -0.0837013
-0.0963118   0.720253   0.193742
 0.231015 0.0275961  0.121443
-0.0111267  -0.944101   0.205265
   0.250511 0.000412635  0.00978229
-0.0749522  0.0315991   0.130231
-0.000753742   0.00295703   -0.0162939
 -0.338704 -0.0647471    0.15816
 0.0204052 -0.0370997  -0.132797
-0.0400652  0.0034894  -0.141909
 -0.233574   0.019896 -0.0651414
 0.0135419 -0.0155356 -0.0302058
 0.0203602 -0.0232632 -0.0781002
-0.00151475  0.00929151    0.461692
 0.320991 0.0011351 -0.170628
 0.0200405 0.00866306  -0.012585
 -0.241893 0.00741089 -0.0364451
-0.0690691  -0.082964  -0.177487
 0.232031 -0.098573 -0.189441
0.0755726  0.404222  0.519809
  -0.26104 -0.0133022 -0.0889834
0.0314246 0.0467086  0.182227
   -0.250655 -0.000156651   -0.0134619
  0.327978 -0.0375081   0.160029
-0.284842 0.0644327  0.124588
 0.222708  0.013306 0.0812162
  0.291715 0.00807849  -0.147122
-0.296118 0.0485993 -0.146837
0.0204812 -0.031492  0.127383
  0.0158224 -0.00275936    0.011812
-0.208116  0.322301  0.187061
 -0.301602 -0.0373993   0.158005
  0.235753  0.0160984 -0.0827685
   0.238064 -0.00405173  -0.0177671
 -0.262937 -0.0159579  -0.044903
-0.0230284   0.035428   0.175777
   0.269542  -0.0308565 -0.00170976
0.0105137 0.0086409 0.0382979
     0.27159   -0.0220241 -0.000745012
 0.264354 0.0153926 0.0210164
-0.0294145  0.0221269  -0.163575
-0.00897831 -0.00147283   -0.116659
  0.0104815 -0.00956238 -0.00361023
-0.00683415  -0.0111237  -0.0919141
-0.261991 -0.124459  0.234403
-0.0131415  -0.033439    0.18473
  0.240602  0.0124314 -0.0880342
    0.250218 -0.000920898    -0.031632
0.00101682  0.0124129   0.179562
  -0.250539 -0.00197725   0.0668178
 -0.293581 -0.0954866  -0.147826
0.00452766 0.00553853 0.00753418
0.324315 0.116796 0.343284
  0.26988 0.0377535 -0.118299
 0.267971 0.0269271 0.0779612
  -0.250016 0.000721623   0.0082892
-0.0615377    1.17747    0.18479
 0.00262476 -0.00356574  0.00113938
 -0.0111219   0.0121657 -0.00177624
-0.059163  0.307048  0.152845
   0.270325 -0.00934456   0.0312648
 -0.284567  0.0173521 -0.0931951
    0.250934 -0.000445094    0.0638115
 -0.211921  0.0430763 -0.0922036
-0.200752 0.0408224 -0.147288
-0.278344 0.0388473  -0.12252
 -0.210638 -0.0284944   0.441381
 0.0191803 -0.0234604 -0.0869987
 -0.260017 0.00995052 -0.0606064
-0.0209093  -0.084276   0.214496
  0.256152 -0.0290211  -0.145471
0.00317336    4.52004  -0.264928
 0.245334 -0.015013 0.0128658
-0.0900022  0.0133142   0.555753
-0.0158129  0.0446686   -0.36214
0.00306922 0.00474621 -0.0278287
-0.0711981   0.409722  -0.179664
-0.244763 0.0148713 0.0183877
 0.0101213  0.0162085 -0.0968689
0.00738382 -0.0158363   0.138292
  0.259108 -0.0447478  -0.064322
 0.0182802  0.0119809 -0.0300888
 -0.240957  0.0177609 -0.0542913
-0.0173381 -0.0105786 -0.0661545
-0.212081  0.107535 -0.207155
  0.290328 -0.0266899     0.4551
  0.252105 0.00172963   0.072598
0.000851369 -0.00225689  0.00614487
  -0.239172  0.00996869 -0.00793648
 -0.256687 -0.0804193  -0.130491
   0.238638 -0.00961941    0.154328
  0.210789 -0.0363917 -0.0544463
 -0.300277 -0.0547635  -0.147322
 0.317795 0.0377501  0.143018
-0.00734064  -0.0306385   -0.171937
 -0.278133 -0.0115733  -0.112348
6.16489e-05  0.00128593  -0.0218264
 -0.197894 -0.0962789   0.257262
 0.0222462   -1.27701 -0.0393956
0.000759871 -0.00351357   0.0801388
-0.0223753  0.0224548  -0.037326
   0.26933 -0.0212301  0.0317417
 -0.20719 0.0162234  0.127062
-0.00478176  -0.0066931  -0.0275766
-0.110319  0.716062  0.195928
  0.251946 -0.0233727   0.141798
-0.0127004 -0.0249058  -0.134365
-0.00709028  -0.0166009   0.0310392
  0.278388 -0.0337234  -0.112196
  0.277542  0.0366122 -0.0780687
 -0.291527 -0.0536507   0.163161
 -0.269832  0.0340272 -0.0127802
0.00953039 -0.0105991  0.0608971
0.00139836 -0.0203527   -0.55332
-0.0176927 -0.0404295  -0.178758
   0.119744 -0.00865061   -0.266918
-0.0457576 -0.0458304  -0.172102
 -0.250086  0.0386561 -0.0902085
-0.261954 0.0296992 0.0238422
 -0.317334 -0.0651386  -0.152514
 0.035509 -0.021992  0.147081
0.000546363 -0.00474353   -0.233272
-0.0127237 -0.0157991    0.07815
  0.243035 -0.0199764    0.12631
 0.284926 0.0294215 -0.145822
  0.272071 0.00445096  0.0320852
-0.272212 0.0137462 0.0956164
  0.270667 0.00726887  0.0377164
 0.290322 0.0359341  0.134972
   0.269981 -0.00392706   0.0062636
  0.032376 -0.0703344   0.179433
0.00773132  0.0123143  -0.120796
-0.199525 0.0393925 -0.090458
-0.297974  0.104197 -0.172637
  0.219979  0.0189463 0.00663101
 -0.246568  0.0318516 -0.0521391
 0.0298969 -0.0508391   0.162661
 -0.284602 -0.0321025  0.0923618
 0.255696 0.0301964 -0.066026
 -0.274845 -0.0209297  0.0215949
  0.17908   1.19038 0.0659334
   0.230701 -0.00635617   -0.122713
  0.262527 -0.0125332  0.0869521
 0.226574 0.0171026 0.0938697
     0.038 -0.0855536  -0.260173
 0.311817 0.0996742   -0.2528
-0.00233727    0.017101    0.886508
 -0.231946  0.0139539 -0.0493562
-0.212538 -0.143618 -0.217575
  0.16639  -0.30595 -0.121691
-0.0182334  0.0165868  0.0105676
-0.294795  0.050633  0.130953
0.0150056  0.322107 -0.149185
-0.00229965 -0.00334921    0.119277
-0.00483626  0.00698298   0.0689079
-0.289907 0.0395832 -0.117651
 0.268976 -0.029683 0.0976298
   0.250453 -0.00010972 -0.00373319
  -0.264393 -0.00316184  -0.0361962
  0.237287 -0.0172283 0.00124864
  0.256757   0.007949 0.00819082
-0.211387 0.0877705  0.165956
0.00232706 0.00384867  -0.016725
-0.239068 0.0279613 0.0755796
0.235017 0.114345 0.224789
  -0.251859 0.000897231   0.0647843
5.96418e-05  1.7259e-05   0.0397047
  0.270949 -0.0240265  0.0676297
-0.00721426   0.0117633  -0.0421065
-0.0370356  0.0295749 -0.0941945
-0.274855 -0.034452 0.0576892
-0.230973 0.0187835 0.0485722
0.000436633 0.000783411   0.0232058
 0.276128 0.0374892 0.0322599
 -0.269125 0.00962504 -0.0200623
   0.264703 -0.00365263   -0.139571
  0.243811 0.00396897  -0.010128
-0.000210721    -0.001839   0.00198175
  -0.280383 0.000817333   -0.088616
 0.273213 0.0167212 -0.181538
 -0.252189 0.00267947 -0.0382687
-0.207957 0.0669245  0.140956
-0.215902 0.0520394 -0.120878
 0.272541 0.0219283 0.0314053
  0.0080769 -0.00379966    0.105938
-0.00132978  0.00281389   0.0591453
-0.0119036 -0.0178384  -0.144093
0.342237 0.124997 0.353498
  0.243019 -0.0232916  0.0587177
 -0.238306 -0.0013937 -0.0030243
   0.250459 -0.00111838  -0.0202792
0.0566212  0.451682 0.0800862
 0.280954 0.0586273 -0.156076
   0.263089 -0.00586366   0.0238788
0.245644 0.035671 0.109462
-0.0236264  0.0373475  -0.106621
0.0185258 -0.174649 -0.670893
 -0.253492 -0.0386726  0.0832981
-0.000778957     -3.68246      1.96177
-0.338426 0.0215642  0.201427
 -0.0134346 -0.00256246    0.132116
-0.00269199 -0.00315216  -0.0399851
-0.154871 0.0214437 -0.287848
  0.282924 -0.0113635  -0.130505
0.0331098 0.0281843 0.0753123
  0.310143 -0.0485868  -0.178624
   0.253275 -0.00303486   0.0801468
    0.3048 -0.0145196  -0.151025
-0.0289776   0.584904  0.0902784
  0.251203 -0.0012175  0.0250166
-0.310583 0.0396087  0.147146
  0.210823 -0.0369329  -0.141076
 0.00433491 -0.00756835 -0.00170679
   0.24819 0.00523863 -0.0675544
  0.318906 -0.0974301    -0.2253
 0.0164042 -0.0248326  -0.205021
-0.268723 -0.067624 -0.111791
 0.257444 0.0667589  0.146596
  -0.23478  0.0135612 0.00116705
0.00939184 0.00438806    0.11003
 0.205768 0.0915985  0.179039
 0.244436 0.0455035 -0.166777
 0.261855 0.0122033 0.0341044
 0.266569 0.0678063  0.212027
-0.0244005    1.93606  -0.182859
-0.330838 0.0105312   0.29328
0.0280304 -0.617127  0.185727
-0.00337333  0.00511161   0.0402828
 0.018537 0.0471377 -0.134687
 -0.245939 -0.0409791 -0.0357689
 0.275207  0.030368 -0.125143
-0.00139763 -0.00666528    0.119878
0.00957463 0.00887007  0.0469931
-0.212679 0.0886292 -0.172666
 -0.273875 0.00526188 -0.0913341
-0.290479 -0.115562 -0.202157
 -0.286815 -0.0498665   0.116402
0.000708583  -0.0236433   -0.016004
 -0.268523 -0.0048147  -0.111934
 -0.243851 -0.0249773  0.0236231
 -0.311038 -0.0221369   0.215569
-0.0187284  0.0551048   0.156237
0.000604774   0.0839446   -0.207489
  0.261829  0.0110048 -0.0632689
 0.250302 0.0201554 0.0486737
-0.0536387   0.057845   0.188549
 0.333533 0.0132368 -0.170607
 0.0116512  0.0102869 0.00428093
  0.291976 -0.0545615  -0.160019
  -0.304373 -0.00929368    0.241265
 -0.249353 0.00173009  0.0137775
  0.268537 -0.0393028  0.0355903
-0.0153341  0.0433256  -0.137154
-0.377694 0.0523056 -0.260807
 0.240405 0.0117443 -0.013417
-0.208101 0.0797004 -0.157162
 -0.242659 -0.0266654 -0.0260698
 0.176759 -0.253609  0.123644
  0.38687 0.0248559 -0.185475
 -0.0647077 -0.00722896   -0.220043
-0.059548 0.0307617 -0.223813
   0.254323 -0.00165599    0.111323
  0.276196  0.0257309 -0.0629484
  0.251251 0.00182481   0.061429
0.000190448 0.000746856  -0.0343237
  0.272887 -0.0696397   0.186908
  0.290829 -0.0617865   0.183948
-0.0750213  -0.997668   0.142286
-7.50218e-05  -0.00115254    0.0916142
  0.302486 -0.0551442   0.175552
 0.299271 0.0990947 -0.163597
-0.307635 0.0476956  0.118557
-0.00529781   -0.076815   -0.220938
  0.262544 -0.0487233  -0.054057
 -0.177307 -0.0503766   0.121911
-0.244526 0.0654747 -0.131289
0.0330166 0.0829085 -0.223074
0.00513665  0.0668994   0.350809
 0.00547119  -0.0060605 -0.00762466
  0.269876  0.0422312 -0.0888407
  0.087434  -0.633971 -0.0815786
0.000199693 -0.00249095   0.0460092
  0.078354 -0.0503156   0.208526
 0.222043 0.0164305 0.0643179
-0.263235 0.0201099 -0.044483
-0.0103533  0.0112492 -0.0312125
  0.237529  0.0148703 -0.0628074
-0.0197898  0.0185935  0.0291758
 -0.260439 -0.0694834  -0.118842
  0.0142273 -0.00506037   0.0820363
    0.3448 -0.0119577   0.163068
   0.254699 -0.00354197   0.0921399
 0.278406 0.0381499 -0.069866
0.293034 0.146013 0.342111
 0.0097258 -0.0119366  0.0698529
-0.241619 -0.027699 0.0930202
 -0.301303 -0.0395979   -0.12613
  0.242627 -0.0118475   0.094328
 0.0046341 0.00504681  0.0215358
 0.263686 0.0347254  0.060437
0.0170382  0.023895  0.133917
  0.280978 -0.0365853   0.123022
 0.265073 0.0582269  0.122598
-0.0794042  -0.278344 -0.0658455
   0.240595 -0.00910759   0.0223609
  -0.273081 -0.00186023   -0.106997
 -0.217387 -0.0284601 -0.0644093
  0.264955  -0.016776 -0.0909595
-0.339353 0.0431268  0.320751
-0.031319 -0.138875 -0.543562
-0.0952337  -0.833848 -0.0295398
   0.250919 -0.00107682    0.109053
 0.0310459 -0.0363383  -0.152233
-0.000165893   0.00116927   0.00807538
-0.00576115   0.0100946    0.114587
  -0.23343 -0.0678295  -0.174337
-0.240589 0.0198751   0.11659
-0.0183042 -0.0214095 -0.0926468
-0.023373  0.374371  0.191654
 -0.246525 0.00329382 0.00341912
-0.251837 0.0198846 0.0559601
 -0.269081 0.00272609   0.143307
 -0.271668 -0.0523418  0.0951519
   0.251037 0.000482766    0.042755
-0.299212 -0.113657  0.152498
 -0.231139 -0.0115289   0.037303
   0.228887 -0.00855984  -0.0883613
  0.274396  0.0333656 -0.0418746
   0.25573 -0.0364859  0.0793213
-0.00289873  0.00676907    0.110085
 0.154317 -0.235268 -0.110872
  0.262523 -0.0312278  0.0123513
  0.245003 -0.0123625 -0.0556083
   0.324314 -0.00288781    0.263198
-0.220919 0.0843008 -0.157855
 -0.264919 -0.0694113  -0.105178
0.000131482  0.00481422  -0.0999524
  0.26688 0.0632747 -0.427945
-0.00681122  -0.0110076   0.0663302
0.0471133 0.0341099  0.154718
 0.312998 0.0604226 -0.165838
-0.275343 -0.010992  0.120626
  0.261115 0.00974085  -0.135309
 -0.266396 -0.0196423  0.0334642
  0.267721 -0.0261176 -0.0790581
 0.312647 0.0183103  0.218939
  0.266936 -0.0276542   -0.03772
0.00471631 -0.0180778  -0.140479
0.00320135 0.00417835 -0.0395149
 0.015863 -0.118137  0.254918
 0.0601146 -0.0336918   0.197382
  -0.24998 0.00204078  0.0740398
 0.0637227 -0.0410462  -0.291233
0.00425015 0.00664583 -0.0610714
 0.287147  0.029862 -0.105028
   0.343653 -0.00546465   -0.190102
-0.254837 0.0386963  0.117294
0.000480276 -0.00391174  -0.0981888
  0.259599 -0.0138917  0.0529707
-0.0156797 -0.0131622  0.0652551
 0.0122293 0.00122103   0.101174
-0.389792 0.0134492 -0.227599
