-0.276972  0.152901 0.0714632
 -0.380234  -0.129675 -0.0416651
  0.408156  0.0710953 -0.0338694
-0.0665151  -0.140834   0.075538
  0.386576   0.121685 -0.0904754
-0.161926 -0.103713  0.126174
-0.310655   0.14748 -0.051417
0.0702852 -0.139679 0.0645176
-0.223277  0.162491 0.0866396
-0.182339 -0.142839  0.113133
  -0.262651    0.152476 -0.00755582
-0.369845  0.118969 0.0943578
-0.197099  0.158891 0.0973915
   0.34523   0.141641 -0.0689885
-0.291114  0.152719  0.107115
  -0.352745   -0.131115 -0.00335232
 0.428848 0.0261513 0.0242568
-0.00237337    0.147317  -0.0716883
  0.177952  -0.142817 -0.0162554
  0.036684  -0.144852 0.00734951
0.0236896  0.153282 0.0902945
  0.205671   0.149068 -0.0395468
-0.0549381   0.159203 -0.0923605
-0.211211  0.149539 0.0445225
 0.193649 -0.167691  0.100791
  0.158028   0.137876 -0.0502396
  -0.27449   0.152972 -0.0511405
-0.334125  0.155274 0.0722148
-0.354594 -0.131259 0.0270602
 0.380134  0.110238 0.0886398
  0.400942 -0.0701406 -0.0491673
 -0.400415  0.0719726 -0.0809811
0.0747871  0.138908 0.0311725
-0.226776  0.152225 0.0290591
 0.301027 -0.157538 0.0855433
-0.104466 0.0640669  0.122299
   0.39993  -0.101589 -0.0271272
 -0.314974   0.145817 -0.0630267
0.207615 0.160259 -0.11519
 0.243162 -0.152915 0.0489554
 0.0284634 -0.0840318  0.0367554
  0.411776 0.00755111  0.0386256
  0.118966 -0.0208852  -0.107733
 -0.122504  -0.124492 -0.0546282
0.0432104  0.143547 0.0543096
 -0.354584  -0.130923 0.00193394
 -0.248344   0.153658 -0.0313114
   0.405237  -0.0515927 -0.00788538
-0.252956 -0.157994  0.107554
 -0.309777   0.148194 0.00537572
 -0.292054   0.151871 -0.0696442
    0.2505   0.152651 -0.0182959
 0.353333  0.131561 0.0350854
 0.395748 0.0766003 0.0544001
-0.278201 -0.129069  0.108107
 0.127494 0.0131305 -0.125139
-0.0493688  -0.142999 -0.0373148
   0.153638   -0.135641 -0.00549642
 -0.13966  0.139651 -0.112867
-0.332673  0.151318 -0.113553
0.0991793  0.132982 0.0248763
 0.329264 -0.150705 0.0994112
 0.217487 -0.163525 -0.105703
-0.205838 -0.148087  0.104696
  0.232461  -0.151994 -0.0250914
  0.25666 -0.152753  0.115424
0.0125353  0.115054 -0.114865
 0.304116  0.152678 0.0639262
  -0.133349 -0.00266039   0.0860623
 0.169801 -0.121659 0.0674204
 0.104152 -0.128399 0.0572749
 0.229255 -0.151714 -0.108724
  0.274289   0.153202 -0.0630762
  0.122051  -0.123685 -0.0565171
-0.287697  0.150943 0.0571067
 0.400747 0.0315103  0.109634
  -0.389628   0.0972099 -0.00391251
   0.40644  0.0678352 -0.0951265
-0.250777  0.152867 0.0604951
 -0.137753  -0.135897 -0.0947982
-0.106711 0.0787662 0.0682716
 -0.033922  -0.144664 -0.0182644
0.0492737  0.142523 0.0336857
  0.257727  -0.169605 -0.0802503
 0.316301  0.150325 0.0944738
 -0.125621 -0.0262875 -0.0789605
 0.157757 -0.107874  0.122868
-0.0244336  -0.145545 -0.0377433
-0.237523  0.152742 0.0263216
 0.121485   0.12544 -0.078348
  -0.41155  -0.114938 -0.0819305
 -0.20151 -0.148221 0.0222679
 -0.341493   0.137032 -0.0170315
-0.379608 0.0687695 -0.114449
   0.37714 -0.0182451   0.126874
-0.032562  0.144445 0.0479053
-0.413413 0.0807853  0.089548
   0.18992   0.145828 -0.0308822
 0.270204  -0.15311 0.0665194
  0.409116  0.0485654 -0.0930183
0.0229244 -0.141472 -0.121213
-0.226299  0.148884  0.115672
  0.365556   0.123737 -0.0191684
  0.407771 -0.0466725 -0.0541107
  0.411589 -0.0141342  0.0208812
-0.284951 -0.135492  0.135401
-0.320546  0.143397 0.0559219
-0.0183759   0.146403 -0.0394135
 -0.406474  0.0478792 -0.0125437
  0.120897   -0.13442 -0.0965809
-0.0331862   0.144807  -0.074997
-0.352316 -0.141428 0.0842193
0.0748808  0.137811  0.102695
 0.310439 -0.153553 0.0898444
 -0.122091 -0.0374836   0.132522
 -0.0156947    0.145126 -0.00711438
 -0.410057  -0.104889 -0.0518218
 0.312983 -0.146814  0.061048
 0.385538   0.13653 0.0390983
 -0.266404    0.16236 -0.0100732
-0.142746 -0.068255  -0.11373
 -0.138379 -0.0913193  -0.114987
-0.125115 -0.015058 0.0368883
 0.398916 -0.122895 0.0625749
  -0.37071   0.154963 -0.0901319
 -0.29962 -0.112397 -0.116952
-0.145994  0.131746  0.081676
 -0.412706   0.039572 -0.0732699
0.366369 0.120814 0.119312
 0.167082 -0.140054 0.0750812
  0.242167  -0.152827 -0.0498586
  0.249226  -0.159029 -0.0920008
-0.210156  0.149142 0.0671362
 -0.228928  -0.150944 -0.0020113
 0.220728 -0.149613 -0.114016
-0.374294  -0.12587 0.0578484
-0.0809114   0.136443  0.0568795
 0.318095  0.139872 -0.118392
  0.410124  0.0169869 -0.0217862
-0.164129 -0.138032 -0.050965
-0.401897  0.107704 -0.096758
 -0.240433   0.152833 -0.0234443
-0.310328 -0.150353  0.107641
  0.340158  -0.139287 -0.0646258
 -0.132746 -0.0135637 -0.0247772
-0.0804704   0.109359   0.118778
 0.262238  0.154008 -0.107231
 0.287412  -0.15155 0.0784979
-0.408451 0.0455033 0.0671797
   0.1249 -0.124319 0.0074701
 -0.231118  -0.152164 -0.0909827
-0.215237 -0.150436 0.0538355
-0.139148 0.0391632 0.0409017
0.332946 0.131445 0.129316
-0.352197  -0.13304 0.0484993
  0.198174  -0.147026 -0.0391157
 0.256003  0.152932 -0.022413
  0.247437   0.151949 0.00731114
-0.131543 -0.023989  0.134671
-0.393733 0.0358945  0.120686
 -0.32388 -0.145809 0.0868894
-0.15632 0.133337 0.115258
 0.369382 -0.123182 0.0193871
 0.238251 -0.152435 0.0789827
-0.233465   -0.1507 -0.127756
  0.124505  0.0371837 -0.0188688
-0.0445972   0.143627  0.0354576
  0.276827  -0.153175 -0.0492593
 0.364145  0.124477 0.0381866
-0.0555135   -0.14066   0.122007
-0.0827934  -0.128446   0.117582
  -0.413607 0.000730967  -0.0904781
 -0.124828 -0.0248275  0.0166579
  -0.125432 -0.00526356   0.0247098
 0.425906   0.04463 0.0802672
-0.377081 -0.117372 0.0560833
-0.139725  0.129947 0.0369509
   0.124283 -0.00720464  -0.0989466
  0.410257 -0.0935549 -0.0596875
 -0.125126  -0.110891 -0.0202162
 -0.28049 -0.161966 0.0946486
 -0.402498  -0.138632 -0.0804389
-0.0699757   0.139344  0.0619979
  0.407583 -0.0317602 -0.0291632
0.0304326  0.145206 -0.030808
  -0.125157    0.120762 0.000187639
 0.410052 0.0189068 -0.104262
-0.0593995   0.148375  0.0795556
  -0.18845  -0.143345 -0.0245636
0.0241158  0.145628 0.0656503
 -0.124873 -0.0325824  -0.087856
-0.156896 0.0949197 -0.125299
 0.124638 -0.143398 -0.108206
-0.0575418   0.142426 -0.0335707
 0.281603 -0.156535  -0.11466
 0.328585  0.143919 0.0893158
 -0.409751 -0.0302034 -0.0106489
-0.183146 -0.143369 0.0787761
 -0.372783   0.138876 -0.0828114
 0.335349 -0.142142 0.0994011
-0.361296  0.157479 0.0907578
-0.405718 0.0351132  0.019786
-0.126576  0.161118 -0.113901
  0.412243 0.00310701  -0.094649
  0.424869 -0.0265327  0.0023614
-0.187445    0.1449 0.0813245
  0.352962  -0.136382 -0.0943668
 0.0511944   -0.15311 -0.0784475
 0.243643 -0.154817 -0.101049
  0.340286  -0.139805 -0.0941535
-0.377409  0.106372  0.111423
0.0108569 -0.146314 0.0512135
  0.387402 -0.0999668  0.0777719
 0.120066 -0.145512 -0.101908
  0.36191  0.128281 -0.111464
-0.123086 0.0147813 -0.104784
0.0108066  0.146336 0.0483145
   0.18493  -0.142454 -0.0607713
 0.0338096  -0.145187 0.00471516
  0.395579 0.00619652  -0.109831
 0.326982 0.0975677 -0.103924
-0.220939  0.157938  0.100533
  0.368701   0.121192 -0.0363729
 -0.410981 0.00921246  0.0345605
  0.0898941   -0.135353 -0.00688492
  0.169057  -0.140105 -0.0112055
 -0.410916 -0.0854067 -0.0985699
  0.12275 -0.115817 0.0399749
  0.352076  -0.140216 -0.0797786
-0.405834 0.0718039 0.0192534
-0.0180211   0.145757  0.0678474
-0.174026 -0.141749 0.0739929
-0.0353942  -0.150309  -0.116069
  0.388535  0.0973899 -0.0332992
-0.324739 0.0890383 -0.070938
-0.0232863   -0.14531 -0.0277885
   0.4158 -0.123718 0.0178186
  0.127472 -0.0996562   0.108479
 0.0751127   0.139178 -0.0752061
0.171391 0.141926 0.102501
  0.124977  0.0917791 -0.0635929
  -0.12982 -0.0473243   0.128349
  0.118489   0.126136 -0.0354258
 -0.129012   0.125677 -0.0218113
-0.135196  0.119466 0.0951005
 -0.135431 0.00730114  0.0837732
 -0.364546 -0.0570853   0.107093
   0.124225  -0.0107968 -0.00174552
  0.283921   0.152111 -0.0419096
 -0.136912 -0.0426283  -0.104658
  0.42316 0.0456335 0.0487538
 -0.399557 -0.0725599  0.0153587
 -0.225087   0.151014 -0.0168106
 -0.423007 -0.0268186  0.0650469
-0.257287 -0.153284  0.091927
-0.406008 0.0530345 0.0448053
  0.103259   0.130293 -0.0648902
  0.334516   0.147219 -0.0784865
 -0.423546 -0.0985354 -0.0786373
 -0.19891  0.121377 -0.132791
-0.051965  0.123731 -0.116763
 -0.123226   0.135957 -0.0984076
-0.139007 0.0776482 -0.116309
-0.00718681    0.144692 -0.00545157
-0.373655 -0.116151 0.0873618
-0.401463 -0.066637 0.0112173
-0.281407 -0.172032 0.0290912
-0.167777  0.139381 0.0215266
0.0570533  0.145907 -0.102483
 -0.124618 0.00301372  0.0334176
 0.123396   0.09767 0.0374863
  0.149883   0.134592 0.00527262
 0.289192  0.153326 0.0976864
 0.334882  0.141108 0.0893014
  0.355386  -0.130924 0.00224011
  0.35126  0.132125 -0.009863
 -0.323189   -0.14435 -0.0641154
0.00856409   0.146639 -0.0589372
-0.267544 -0.154151 0.0885099
  0.236131   -0.15286 -0.0318444
    0.35034   -0.133466 -0.00204914
-0.159358   0.13903 -0.104682
0.227842 0.148841 0.121858
  -0.25248  -0.153264 -0.0337234
  0.308879   0.147239 0.00881469
  0.235219  -0.151313 -0.0692494
 -0.408309     0.0376 -0.0385706
 -0.425918 -0.0873917 -0.0634169
  0.214828   -0.15015 0.00942896
-0.202361  0.108826 -0.109671
 0.0569984   0.142435 -0.0151687
 -0.270964  -0.153623 -0.0975081
 -0.407613  0.0723418 -0.0485698
-0.0454898   0.116585 -0.0878284
-0.402101 0.0889008  0.048948
 -0.388468  -0.120453 -0.0598282
  -0.160359   -0.137763 -0.00047797
 -0.385868   0.131518 -0.0535932
  0.222098  -0.150331 -0.0693655
0.165157 0.129805 -0.11861
 0.0228295   0.146046 -0.0373159
0.072036 0.138674 0.019821
 0.136454  -0.10956 -0.102063
 -0.367196   0.136873 -0.0917913
-0.146791   0.13529  -0.10449
   0.236436     0.15261 -0.00588874
-0.00363548    0.146642  -0.0610765
 0.104653  0.159356 -0.102698
  0.124897  0.0123162 -0.0665312
0.343283 0.138939 0.103675
   0.378418   -0.112006 0.000880155
-0.297365  0.158706 0.0936237
-0.249615  0.103784 0.0115934
0.0508448 -0.142088 -0.105336
-0.345084  0.138302 0.0991189
 0.230394  0.150717 0.0429809
 -0.275344     0.1511 -0.0127911
-0.141261 -0.131322   -0.0905
  0.23739  0.152593 -0.111062
  0.405704  0.0459756 -0.0244741
-0.269823  0.152256 0.0485337
 -0.421562 -0.0851194 -0.0894115
 -0.20821 -0.154018 -0.111141
0.0482988  0.142921 0.0450866
  0.102418   0.131808 -0.0489443
    0.4109   -0.10995 -0.0763327
-0.291911  0.144661 -0.116076
-0.19339 0.143193 0.114034
  0.410796  0.0236478 -0.0943871
-0.120346  0.125631 0.0235454
   0.12476    0.07828 -0.0207016
 -0.216889   0.150936 -0.0225163
-0.192849 -0.148649 -0.111745
-0.405541 0.0257995 -0.111501
 0.232739 -0.155414  0.113011
-0.195123 -0.127267   0.12008
 0.396422  0.102892 0.0408522
 0.102954  0.131415 0.0641083
-0.294457  -0.14985 -0.116453
 -0.336639  -0.140267 -0.0452043
-0.249619  0.148066  0.117273
-0.0972396   0.133041 -0.0310349
-0.204308  0.125897  -0.12855
  -0.12386 -0.0748627 0.00663235
0.0517869 -0.142434 0.0823222
 -0.409862 -0.0332548 -0.0230359
0.0714706 -0.154265  0.110622
  0.291317  -0.151618 -0.0518269
 -0.391988   0.120796 -0.0621493
  0.345429   0.136091 -0.0514291
 0.410818 0.0206021 0.0382376
 0.413779 0.0372481 0.0534684
  0.125026  0.0276122 -0.0550705
 -0.37476 -0.122771 0.0749444
-0.213855  -0.14796 -0.120671
 0.016165  0.152834 0.0881741
-0.248473  0.122328  0.108105
0.245296 0.136191 0.119143
 -0.164862   0.138844 0.00701736
 -0.361678 -0.0712783   0.109624
  -0.186734    0.145504 -0.00348479
-0.110257 0.0199868  0.128794
 -0.234704   0.130671 -0.0679441
  0.375381  -0.115674 -0.0210657
-0.125513 0.0871809 0.0621054
  -0.1692 -0.139094 0.0413047
 -0.400579 -0.0707097 -0.0274941
 0.330457  0.141642 0.0333494
-0.303412  -0.14939 0.0207748
  0.400172  -0.118715 -0.0219225
 0.183827 -0.140967   -0.1179
 0.405201 0.0533398 0.0104216
 -0.401835 -0.0676985 -0.0267817
  0.272577  -0.152634 -0.0117026
-0.103741 0.0582154 0.0472276
-0.357209  0.125147 -0.109209
 -0.420218 0.00476865 -0.0519678
 0.0285256  -0.144444 -0.0492096
0.0860646  0.169227 -0.108458
-0.0104598   0.145274  0.0462115
0.0552233 -0.123805  0.127953
 -0.125489 -0.0137526  -0.054129
 0.111195 -0.116045  0.101371
-0.353854   0.10768 0.0322178
 -0.321027   0.143393 -0.0305076
-0.169548  0.129304  0.126374
-0.227303  0.157863 0.0998882
 -0.331097  -0.141496 0.00755603
 -0.159463 -0.0789245  0.0843692
 0.166886 -0.112812  0.121671
  0.312277  -0.154712 -0.0687031
-0.280936 -0.152335  0.054511
-0.177662 -0.145813 -0.105974
  0.409812 -0.0266968  -0.040553
-0.156573  0.155715  0.083367
0.0185335 -0.147135 -0.093355
  0.124684  0.0326729 -0.0168786
 0.245883 -0.155025  0.111271
    0.41322 -0.00964154   -0.055496
  0.132524  -0.123669 -0.0935918
 0.273593  0.151648 0.0104179
-0.172931 -0.115132  0.125772
  0.232112  -0.152577 -0.0904594
0.0143549 -0.146571 -0.006333
  0.27045  0.169059 0.0888156
 -0.385524   0.129884 0.00725696
  -0.41056 -0.0239579  0.0979316
-0.0560476   0.141773  0.0342294
 0.113603  0.139357 -0.103178
  0.150637  -0.135892 -0.0708031
 -0.275006   0.147174 -0.0231079
  0.230267   0.152375 -0.0426411
-0.0290215  -0.145854 -0.0446084
-0.24716 -0.15874 0.106994
 -0.415226 -0.0605208 -0.0970878
  -0.12539   0.103065 -0.0231402
 0.279884  0.151686 0.0194046
-0.171737 -0.140639 0.0182943
0.0209086   0.14521 0.0574135
   0.131933   -0.126478 -0.00962035
 0.0841637  -0.142466 -0.0805985
-0.212906 -0.157549 -0.118105
 0.366654 -0.123582 0.0570519
-0.388787  0.109858 0.0525594
-0.356802  0.141236 0.0845887
  0.410215  0.0306629 -0.0453346
0.220106 0.164522 -0.11909
  0.164265   0.138288 -0.0071761
 0.129567  0.126784 0.0127121
-0.159337  0.136996 0.0558265
 0.194809 -0.146339 0.0613939
-0.303215 -0.100099 -0.111118
   0.40227 -0.0927066   0.107888
 0.291709  0.149923 -0.113762
-0.0973811   0.133067 0.00269689
0.0604497 -0.140988 0.0153309
  0.223001   0.162048 -0.0863971
 0.401608 0.0537172 -0.102274
 -0.330026   0.142682 -0.0474974
    0.3344  -0.141133 -0.0458202
-0.427883 0.0594378 0.0985845
-0.277844 -0.157819  -0.07896
  -0.34486  -0.155171 -0.0866575
-0.0575471  -0.142469  0.0201595
   0.38616   0.101333 0.00566457
-0.188876 -0.156926 -0.101865
-0.263681  0.107791  0.104518
 0.340953  0.110515 0.0648531
  0.419531 -0.0363885   0.101252
 -0.049984   0.142758 -0.0177618
  0.305432   0.150708 -0.0872456
-0.296548 -0.154806 0.0964037
 0.360037  0.127721 0.0584615
-0.00736515    0.144624   -0.126878
  0.419249 -0.0686489  0.0973686
 0.103483 -0.130647 -0.019536
-0.324692 -0.143644 0.0196212
 0.268009  0.154977 -0.103528
   0.38156  -0.119366 -0.0852924
   0.121905 -0.00690425   -0.139076
 -0.276227    0.15347 -0.0680255
 -0.351182   0.132441 -0.0140741
-0.118943  0.124714 -0.084951
 -0.316581   -0.14563 -0.0455325
   0.426685  -0.0707122 -0.00373824
 -0.410248 -0.0268442  0.0378318
 0.310137  0.151162 0.0542827
-0.0996842  -0.132706 -0.0329842
-0.397091 0.0852563  0.110996
   0.24198   0.153258 -0.0547653
-0.293112 -0.153281  0.104949
 -0.363093   0.124958 -0.0402961
 -0.427505 -0.0442392 -0.0925885
 -0.406111 -0.0573222  -0.100168
-0.00840844    0.146462   0.0661107
 0.112478 0.0574642 -0.122802
 0.211607 -0.161031 -0.110464
  0.350243   0.134089 -0.0984517
 -0.255026  -0.153073 -0.0145127
-0.399224  0.104173 0.0642717
   0.41623 -0.0957556   0.073045
 0.399673 -0.122323 0.0795863
  0.387582  -0.115358 -0.0501321
 -0.342039 -0.0890058  -0.103583
  0.40717 0.0469891 0.0971679
  -0.41125 -0.0983187 -0.0450875
 0.308247  0.148308 -0.032335
   0.125725   0.0179249 -0.00434691
 -0.292891   0.150436 -0.0163387
  0.115967 -0.0535281  0.0923346
 -0.21546  0.160434 0.0470766
  0.125015 0.00216302  -0.118815
0.0164989  -0.14655 0.0595085
-0.107289 -0.062424 -0.112929
  0.124874 -0.0847505 -0.0367495
-0.318629   0.14742  0.103006
-0.118237 -0.127069 0.0448089
  -0.129596 -0.00323376  -0.0279183
-0.038483 -0.144821   -0.0597
 -0.176272  -0.141778 -0.0517803
-0.287469 -0.154029 -0.121695
  0.218053  -0.149483 -0.0269708
  0.134016 -0.0264332  0.0413131
 -0.22269 -0.133713  0.118343
0.239619 0.132009 -0.11631
  0.410978  -0.024109 0.00129628
0.305177 0.152507 0.105299
  0.192587    -0.1448 -0.0627623
-0.347854  0.102018 -0.113864
-0.335051  0.139962 0.0563656
-0.0233631  -0.146137  0.0302561
  0.167099   0.138482 -0.0967554
 0.0771718  -0.138386 -0.0233781
 0.234972   0.15287 -0.056755
 0.124866 0.0931217  0.001038
 -0.281278  -0.153022 -0.0724037
  0.0815049   -0.137401 -0.00760314
-0.249791  0.160805  0.111989
 -0.258446   0.153607 -0.0211215
-0.00605423    0.146698   0.0274407
  0.397611 -0.0764673  0.0140325
-0.0297785  -0.154452  -0.114267
  -0.373456   -0.126894 -0.00424272
 -0.38059 -0.110685  0.107957
-0.360742 -0.128664 0.0795159
-0.308777 -0.148888 0.0649353
  0.25845  0.153128 0.0448113
 -0.333619 -0.0676016  0.0618852
-0.141777 -0.117145 -0.108081
-0.0570396   -0.14233  0.0102853
 -0.26807  0.153806 0.0768491
 0.151056  -0.11775 -0.109621
-0.14499 0.154392 0.106332
 -0.398243   -0.10691 -0.0549794
  0.384298 -0.0945239   0.112134
  0.14926 0.0825335 -0.113139
 0.280358  0.153298 0.0783318
-0.0358343   0.137689  -0.119713
  -0.13765  -0.128195 -0.0140611
 0.247525  0.152289 0.0116276
 -0.389365  0.0963199 0.00984891
  0.316809   0.148551 -0.0863693
   0.123161 -0.00711527  -0.0916593
 -0.149313   0.138264 -0.0975527
0.0641857 -0.148206 -0.111541
 0.309947  0.147294 0.0377381
 0.308662  0.148002 0.0330337
-0.127123 0.0853211 0.0203995
 -0.321462   0.144515 -0.0471458
 0.225118  0.153125 0.0128767
0.0477843  -0.15361 -0.105957
  0.397876 -0.0765933  0.0353005
 0.260858  0.153646 0.0540094
  0.305939  -0.156532 -0.0726206
 0.118509  0.127091 0.0604724
 -0.145363   0.131653 -0.0438976
0.0613363 -0.123463 -0.115769
-0.168604 -0.140027 0.0554969
  0.287869   0.151705 -0.0218793
-0.302371 -0.149752 0.0487248
-0.0659581   0.140184 -0.0619954
-0.0339225   -0.14509 -0.0423748
-0.409548 0.0119084 0.0156441
 0.327552   0.11824 -0.136234
-0.0651499   0.111198   0.114069
 -0.29884 -0.130242  0.134896
 0.337782 -0.140705 0.0802728
 -0.145087   0.132241 -0.0206458
  0.308458   0.148246 -0.0204071
-0.176918  0.137424  0.128104
-0.125181  0.123749 0.0117225
  0.401405  0.0679762 -0.0255374
  0.174217  -0.140599 -0.0677312
-0.393735 0.0955382   0.08594
   0.13042  -0.125993 -0.0238128
 -0.392257 -0.0918058  0.0164834
  0.123286  0.0929111 -0.0524474
  0.111584  -0.128808 -0.0332706
 0.290259 -0.148143 -0.121008
   0.411679 -0.00161147  -0.0215199
-0.417356 0.0247951 0.0970871
  0.411681 0.00417567 -0.0406005
 -0.289274  -0.150522 -0.0463623
-0.298267 -0.159275 0.0884945
  0.129122   0.125088 -0.0596552
 0.0132472   0.146765 -0.0761617
  0.394372 -0.0856211   0.080853
  0.414716  -0.038555 -0.0329896
-0.0826671  -0.136732 -0.0648212
 -0.122644 -0.0243942 -0.0182985
 -0.28806 -0.126208 -0.114135
  -0.386116    -0.14258 -0.00603541
-0.123834 -0.124215 0.0520067
-0.0919371   0.120059  -0.103748
 -0.411623 -0.0674972  0.0814355
0.0152002 -0.144749 -0.118381
-0.326877 -0.143705 0.0576581
-0.0443575  -0.142493   0.117608
-0.373906   0.11617 0.0608259
  0.337789   0.142065 -0.0883137
 0.124096 0.0197969 0.0875903
  0.307983  -0.147985 -0.0575347
 -0.400208  0.0726805 -0.0328173
  0.124553 0.00232289 -0.0155274
 -0.119988   -0.12513 -0.0860108
 0.387221  0.091758 -0.112969
0.0270815  0.143136  0.121143
 -0.419581 -0.0520233 -0.0977219
  0.218758  -0.164335 -0.0836146
-0.00481977    0.156217   -0.100768
  -0.19133  -0.146234 0.00101474
 -0.33681 -0.133795  0.101648
 -0.362251  -0.141214 -0.0843799
-0.210709  0.148683 0.0945433
-0.0741719   0.138543  0.0632109
-0.410416 0.0163214  0.101704
-0.411584 0.0294516  0.103059
-0.0329606   -0.14507 -0.0303354
-0.130606 -0.154488 0.0700145
-0.062635 -0.141382 0.0191389
-0.0532534   0.136059  -0.128813
-0.420948 0.0744244 0.0487292
 -0.198621   0.149157 -0.0761907
  0.429351  0.0162463 -0.0745204
-0.0689785  0.0984572 -0.0870357
 0.376624 -0.128087 0.0744853
  0.125157 -0.0960569   0.055639
 0.322629 -0.143883 0.0679765
 -0.280517  -0.151013 -0.0512804
 0.154486  0.134813 0.0280223
 0.135117 -0.128763 0.0114361
  -0.2768  0.153693 0.0898426
  -0.157872    0.130158 -0.00685501
 -0.114077  -0.127767 -0.0552629
-0.160139  0.135431   0.12559
  0.373426   0.117765 -0.0990004
 -0.156816   -0.16592 -0.0922465
  0.273908   -0.15318 -0.0382288
   0.412442 -0.00553849  -0.0994192
 0.298976 -0.149421 0.0174671
  0.309479   -0.14967 -0.0938078
-0.105091 -0.131107 0.0658391
 0.225023 -0.152169  0.101718
 0.251788 -0.152788 0.0478026
 0.11737 0.104099 0.114764
0.336298 0.139143 0.058424
 0.151594 -0.155618 -0.102244
  0.124775 0.00662566  -0.132267
   0.131309 -0.00914141    0.135674
0.234979 0.136864 0.108358
-0.0130552  -0.145712  0.0900584
  0.361046  -0.126807 -0.0070488
-0.360277  0.152306 0.0761635
 0.175296 -0.139797 -0.105603
 0.146135  0.137655 0.0991576
-0.0375743  -0.144606  0.0902084
 0.183772  0.143682 0.0625224
  0.407118 -0.0505112 -0.0938019
   -0.25331   -0.153212 -0.00477556
  0.239464   0.152625 -0.0423919
0.0446264 -0.144192 0.0077673
-0.0260987  -0.143848 -0.0783832
-0.313389 -0.131229 -0.125893
   0.36808   0.122004 -0.0528545
 0.300168  0.149573 0.0281503
   0.363864   -0.135041 -2.3192e-05
-0.162107   0.11163  0.130769
 -0.357412  -0.160139 -0.0944978
   0.306567    0.148434 -0.00375488
 0.411149 -0.025062 0.0519338
 -0.36158 -0.127147 0.0506942
 -0.37025  0.052767 0.0445986
  0.173486 -0.0967437  -0.096404
 0.203896 -0.148068 0.0180498
-0.143697  0.122704 0.0234766
0.00997934   0.122264    0.11454
 0.406824  0.105617 0.0460526
 0.0271101  -0.147177 -0.0235328
 0.125755 0.0234876  0.135481
 -0.265094   -0.15472 -0.0751906
   0.124603   0.0424638 -0.00962103
-0.0489249   0.143655 -0.0398738
 0.313614  0.148941 0.0927996
  0.381482 -0.0085108   0.082277
 0.357466  0.129911 0.0253173
  0.141783 -0.0941403   0.122292
  -0.14353   0.128604 -0.0925118
0.101956 0.131464 0.016577
 -0.124725 -0.0179795 0.00217318
0.0518243  0.142784 -0.066406
  0.409963  0.0707563 -0.0183727
-0.0459176  -0.143348 -0.0857435
  0.12927 -0.143792 -0.100648
 0.273435 -0.153122 0.0227941
  0.125745  0.0430674 -0.0996359
  -0.149158    0.133541 -0.00926591
-0.339229 -0.139682 0.0849584
0.300083 0.156622 0.111873
-0.281061  0.154529 -0.108179
-0.397128  0.110579 0.0319548
-0.169333  0.107422 -0.127359
 0.160147 -0.138589 0.0430299
-0.059701 -0.125797  0.118935
 0.359264 -0.126999  0.028561
0.0785763  0.137635  0.115468
-0.320746 -0.129621 -0.126075
   0.41198 0.00313741  0.0256297
 0.348888 -0.133687 -0.011736
 -0.26247 -0.143271 -0.119602
  0.384838   0.103666 -0.0882006
  0.124736 -0.0298177   0.069364
-0.124949 0.0444552 0.0448628
-0.328769 -0.143489  0.085841
-0.407591  0.121689 0.0447743
-0.402389 0.0621869 -0.113201
 -0.124584 -0.0819003 -0.0822229
0.344349 0.123213 0.116641
 -0.202463  -0.146686 -0.0508291
  -0.414312 -0.00313211   0.0933903
-0.421089 0.0747846 0.0961693
-0.364239 -0.127277 0.0871439
  0.137297  -0.129703 0.00693019
-0.173974  0.136436 -0.106503
 0.250436  -0.15282 0.0624894
 -0.347621  -0.136888 -0.0937789
0.00568352  -0.146854 -0.0601917
-0.162951   0.14664 0.0974422
0.0633203 -0.139865  0.109459
    0.28114    0.152173 -0.00439227
-0.340433  0.147308 0.0700354
  -0.124674  -0.0172294 0.000387888
 -0.223015   0.150735 -0.0487362
-0.341667  0.137401 0.0562027
0.0595174  0.141164 0.0389526
  0.307526   0.114155 -0.0930084
 -0.419869  0.0546056 -0.0949209
0.248936 0.156653 0.108782
  0.406151 -0.0521985  0.0111305
 -0.124851 -0.0263463 0.00900831
-0.402155 -0.063244 0.0054143
 0.236249 -0.127542 0.0961376
 -0.078285  -0.141809 -0.0970846
 -0.365858 -0.0740294   0.070245
 -0.421679  0.0245635 -0.0724452
-0.256661  0.155406  0.110965
  0.208342    0.14933 -0.0686665
 0.194927  0.146709 -0.105108
   0.402856 -0.00975987    0.116742
 -0.325838   0.117099 -0.0965617
-0.211461 -0.149989 0.0880536
 -0.123983 -0.0106611 -0.0177778
-0.134495 0.0440362 0.0785238
   0.24418   0.152376 0.00125721
  -0.124787 -0.00881268   -0.073537
-0.271715  0.126276 -0.107127
0.119725 0.016419 -0.13916
-0.114922 -0.130009  0.100063
-0.0971868   0.134953  0.0892188
 0.354684  0.131256 -0.097266
 0.0017039   -0.14621 -0.0767909
0.0437496 -0.150929  0.105784
-0.376051 0.0286019  0.123912
  0.315801   0.145936 -0.0126965
  0.116536 -0.0542064   0.133107
 0.250306  0.153784 -0.114894
  -0.122658 -0.00944716   0.0908682
-0.0486917  -0.143818 -0.0246922
 0.0533552  -0.142854 -0.0714838
 0.25811 0.144229 0.119917
0.000399172    0.145869   0.0562285
 0.155837 -0.151075 -0.110423
 0.380925 0.0666074  0.114473
-0.0031926   0.147725   0.117246
-0.195393 -0.154424 -0.100403
  -0.36374   0.152933 -0.0855141
 -0.406172 -0.0554904  0.0781838
  -0.425881 -0.00731558  -0.0649421
 -0.158914   0.137026 -0.0565287
0.0529748  0.141989 0.0350624
0.0405571  0.154492 0.0915574
  0.134924  -0.161022 -0.0923842
  0.352312 -0.0280788 -0.0859218
 -0.289147    -0.1515 -0.0259563
0.0849078  0.136067 0.0600884
-0.319672  0.144957 0.0351334
-0.413035 0.0756431  0.111062
-0.297373 -0.150463 0.0281906
 0.125834  0.114086 0.0461782
 0.0425503   0.143859 -0.0209281
   0.145728   -0.133761 -0.00086624
 -0.409125 -0.0312392   0.101236
 0.0781664 -0.0910812   0.111218
 -0.275753   0.153938 -0.0945452
 -0.405108 -0.0550728  0.0493263
 -0.410982  0.0241486 -0.0512469
0.0949096 0.0644795  0.116714
  0.115125  -0.125174 -0.0936979
  -0.342366   -0.136608 -0.00032128
 -0.193996   -0.14525 -0.0538117
 0.0606237   0.140749 -0.0410159
 -0.174484   0.141938 -0.0385095
 0.422012 0.0648005 0.0136072
 0.259913 -0.153839 0.0908377
-0.122635 -0.123906 0.0111836
 -0.10996 -0.127971  0.117066
  0.405674  0.0437148 -0.0184859
-0.208872  0.116087 -0.105369
-0.0252639   0.145259  0.0412783
 0.402493 0.0650635 -0.028132
-0.211687 -0.148635  0.106836
  -0.410874 0.000308737   0.0164247
  0.356766  -0.130546 -0.0430153
  0.345509   0.135762 0.00558971
0.0327223 -0.145446  0.078002
-0.342096 -0.136813 0.0344714
  -0.12703 -0.0320355  0.0747623
 0.139077  0.129852 -0.022349
-0.276535 -0.153229  0.112675
-0.403103  0.131256 0.0256394
-0.296378 -0.150754 0.0730764
    0.41176 -0.00120454   -0.099013
 0.398548 0.0790081  0.110516
-0.400323 0.0945347 0.0669161
 -0.0819728    0.137217 -0.00728253
-0.0382683   -0.14427 -0.0682106
 -0.107869 -0.0748137 -0.0441601
  -0.396451   -0.125277 -0.00848253
 0.338798  0.138443 0.0388212
 -0.226339   0.151943 -0.0313348
 0.392938 0.0795518 -0.106871
  0.403366 -0.0633619 -0.0375105
  0.183316   0.144513 0.00204545
 0.210163 -0.149312 0.0446303
-0.0488911  -0.145181  -0.105043
0.109663 0.114484 0.111342
  -0.172084    0.141182 -0.00646049
-0.0598378  -0.141376 -0.0125481
  0.181728   0.130792 -0.0630842
 -0.195567  -0.145577 -0.0530342
 0.343031 -0.137276  0.056378
  0.0253014   -0.146503 -0.00150254
-0.0239732  -0.152858  0.0913411
-0.125309  0.122737 0.0308172
  0.123906   0.041847 -0.0540412
0.0718445  0.150493  0.108115
 -0.127353 -0.0807595   0.114409
  0.35865    0.1435 0.0910441
  0.124799 -0.0517761 -0.0760172
 -0.417253 -0.0761651  0.0545632
0.0731291 -0.139244 -0.059657
 -0.393496 -0.0889703 -0.0920392
 0.0918077   0.133274 -0.0112581
   -0.16487   -0.139272 -0.00477289
  0.364753  -0.124145 -0.0296358
 0.265737  0.122623 0.0925104
-0.407149 0.0372316 0.0288309
 0.126005 0.0462198 0.0738021
  -0.409404   0.0328145 -0.00526825
 -0.394113   0.125491 -0.0805792
    0.12163   -0.124829 -0.00810242
    0.2374   0.153031 -0.0563233
 0.349076 -0.135983 0.0926042
-0.0985078   0.132451 -0.0341104
-0.354175 -0.132303 0.0634403
 0.116703 -0.138908 -0.103999
 0.337423 -0.160688  0.010578
 -0.285419   0.151217 -0.0225089
 0.348072  0.140831 0.0659563
 -0.382658   0.106041 -0.0974506
  0.124159   0.012389 -0.0402149
-0.123233 -0.108363 -0.068743
0.0282395 -0.138215 -0.122718
  0.40913 0.0387919 0.0237012
 0.402482 0.0495494  0.114034
 -0.238165   0.154253 -0.0855963
 0.272406 -0.154133  0.109137
 0.369992 -0.137008 0.0165249
 -0.365224   -0.12352 -0.0385613
  0.327625  -0.145179 -0.0968561
-0.275703 -0.152954 0.0703814
  0.236684   0.130592 -0.0915444
0.336627 0.143297 0.109578
-0.297879 -0.154406 -0.118678
-0.138531  0.129673 -0.063861
 -0.125761   0.124257 -0.0230122
  0.369937   0.141484 -0.0904449
  0.120257  -0.125538 -0.0366482
 -0.405972 -0.0410737 0.00525862
    0.28858     0.15153 -0.00148106
  0.365502 -0.0846533   0.106466
-0.0734637   0.138827 -0.0289408
-0.396533 -0.101711 0.0683144
  0.353244   0.132081 -0.0366841
-0.384927  0.120224 0.0779179
    0.40501  -0.0536876 -0.00254404
  0.40154 0.0678889 0.0919584
-0.168826  0.113741  0.135611
 0.0515104   0.133605 -0.0772262
  0.289577  -0.151828 -0.0485931
 -0.403632  0.0636111 -0.0354269
 0.212739  0.150189 -0.025457
-0.384458 0.0504748 -0.110712
-0.409043 0.0214527 0.0399469
  0.406254 -0.0407278 -0.0281929
-0.233351 -0.152333 0.0468163
  0.125155 -0.0137668 -0.0562309
-0.418089  0.101009 0.0568137
-0.369969 -0.150239 0.0259667
 -0.429998 -0.0349049  -0.078337
 -0.271711    -0.1537 -0.0780776
 0.135717 0.0753853  0.134251
    0.36602   -0.123224 -0.00448864
 -0.40413 0.0518497  0.109392
-0.147365  0.133653 0.0102382
   0.40024 -0.0832182  0.0336722
  0.410703  -0.024019 -0.0987316
-0.111056  0.123121 0.0973034
 -0.419439 -0.0867284 -0.0512661
0.000384667   -0.147242  -0.0116085
-0.114776 -0.152465  -0.10031
-0.186433 -0.138917 -0.103531
  0.33953  -0.13854 0.0243082
 -0.408144 -0.0304423   0.015085
  0.420821 -0.0515878 -0.0795962
-0.311475  0.148111 0.0984551
  -0.33055  -0.140353 -0.0169998
0.042353 0.126906 0.117552
0.0171361 -0.146741 0.0744729
  0.334207  -0.141919 -0.0953629
-0.126831 0.0756124 0.0737804
 0.360918 -0.127775 0.0486515
 0.215466 -0.157521 0.0971572
 -0.381781 -0.0380805 -0.0497346
-0.0613885   0.141328 -0.0626542
-0.256312  0.153831 0.0722851
 -0.123896  -0.124399 -0.0189987
-0.383929  0.017292 0.0912231
 0.133384  0.110483 -0.102268
  0.373626 -0.0993761  -0.115915
-0.122347  0.122086 0.0848503
  -0.413266   0.0847453 0.000732773
  -0.269528    0.166339 -0.00480891
  0.250311  -0.153628 -0.0403238
 -0.107396  -0.133797 -0.0934776
 -0.114307   0.127413 -0.0502708
  -0.418304 -0.00167703   0.0975026
  0.400827 -0.0811478  0.0829331
 -0.418005 -0.0379206  0.0590775
 -0.370357 -0.0394949   0.114521
-0.0445589   0.111893    0.10473
  0.207943   0.152501 -0.0915437
 -0.384104   0.103111 -0.0270051
 -0.243785  -0.153358 0.00948287
 0.174068 -0.136974  0.105747
 -0.346463  -0.151423 -0.0722993
 0.0461851  -0.143729 -0.0449072
 -0.294858  -0.148978 -0.0500756
  -0.437001 -0.00809524  -0.0156231
 -0.311921  -0.146026 -0.0281528
 0.015139 -0.126031 -0.116953
  -0.398193  -0.0751894 -0.00548193
-0.0558582  -0.142272 -0.0816417
 -0.380503   0.130888 -0.0750869
 0.366509 -0.123612 0.0102335
-0.416573 0.0359576 0.0374217
 0.408683 0.0824473  -0.10375
 -0.20238 -0.147687  0.107807
  0.315961  -0.149621 -0.0648299
  0.124184  0.0317641 -0.0473991
 0.228193   0.15115 0.0639487
-0.179614 -0.153424 -0.107879
0.0113833 -0.145833 0.0961121
 -0.366768  -0.132475 -0.0723649
  -0.135714 -0.00297708    0.114749
-0.367839 -0.126672 0.0723676
 -0.310339   0.146548 -0.0309148
  0.190207  -0.106559 -0.0976857
-0.175572  0.154923  0.106263
   0.398386  -0.0721538 -0.00977084
 0.367743  0.122206 0.0159486
-0.0969054  0.0884421   0.110758
  0.329866  -0.142527 0.00802776
 0.390462 0.0964388 0.0929968
 -0.192545  -0.146592 -0.0315305
 -0.333066  -0.142447 -0.0957545
  0.138244  -0.130084 0.00708839
   0.12357 0.00469868  0.0680343
   -0.3797 -0.0210554   0.110952
-0.293929  0.153794 -0.103351
   0.37592 -0.0625257 -0.0983574
-0.411421  0.015274 0.0539015
-0.319964 -0.145673  0.055778
 0.197794   0.12329 -0.121907
 0.124588 0.0655842 0.0116475
-0.309909 -0.149545 0.0910352
   0.27597   0.153026 -0.0339946
0.00543361  -0.147003  0.0705044
 0.33742 0.143641 0.104338
-0.210308 -0.149355 0.0565514
-0.402558 0.0923972 0.0147877
 0.130356  0.087009 0.0777998
 0.126748 0.0605614 -0.124494
-0.191772  0.107146 -0.110338
 -0.193736   0.140146 -0.0112125
0.271166 0.160781 0.111111
-0.357792 0.0657144  -0.10483
0.0367272   0.14476 0.0255205
 -0.411985 0.00236519 -0.0275286
 0.186908 -0.145399 0.0726661
-0.399271 -0.115504 0.0692186
 0.234404  0.167573 0.0769198
 -0.157369  -0.136164 -0.0225612
   0.418474 -0.00790157    0.100972
  0.419276  0.0919225 -0.0554124
  0.104433  -0.135424 -0.0956492
 0.352075  0.131981 -0.014938
  0.405051 -0.0544035  0.0588337
   0.307243    0.148262 -0.00267078
 0.290323 -0.153067  0.119595
 -0.393841   0.123316 -0.0356966
-0.125665 0.0941563 -0.123081
  0.342462   0.136838 -0.0353012
-0.293891   0.15079 0.0092464
 -0.30513  0.148895 0.0225089
 0.392801 0.0272213 -0.122922
-0.285059  0.151492 0.0451338
0.0312951  0.149315 0.0784244
 0.283453 -0.127719  0.096656
  0.15973 -0.138515 0.0235049
 0.233301  0.149331 -0.118206
 -0.409966  0.0227679 -0.0126297
 0.346892  0.151765 0.0704178
 -0.327179 -0.0868594  0.0889311
-0.0988057  -0.120603   0.131661
 0.243739 -0.153101 0.0328341
  0.263848   0.153677 -0.0625283
 0.199866 -0.163742  0.108868
 0.381545 -0.140365 0.0422959
  0.411507 -0.0382587 -0.0983746
   0.15321   0.134186 -0.0107798
0.0688676 -0.142077  0.108497
-0.320352  0.146032 0.0691208
 0.395163 0.0838456  0.030729
 -0.363547   0.148052 -0.0202189
  0.201242  -0.147495 -0.0309661
 -0.339538   0.139158 -0.0508261
  0.402016  0.0621014 -0.0101612
  0.341827 -0.0930461  0.0960146
-0.419213 0.0379633 -0.096292
 -0.414967  0.0689857 0.00168622
 -0.401458 -0.0842287 0.00395133
   0.2541 -0.129858 0.0990782
 -0.388427 -0.0634315   0.114836
-0.315156 -0.153972 -0.102376
 -0.316313   0.145165 -0.0430777
  0.30591  0.113553 -0.128159
  -0.38385  -0.103544 -0.0122122
-0.383783  0.114825 0.0282569
-0.285851   0.15123  0.020692
 -0.131063 -0.0305972  -0.126309
  -0.405698   0.0509569 -0.00980745
-0.0460635  -0.143978  -0.116851
   0.334622   -0.140388 -0.00552241
 0.0987661  -0.129698 -0.0994909
0.0316579 -0.145436 0.0126188
 -0.125682 -0.0640875 -0.0521164
 -0.212344  -0.149903 -0.0712437
-0.411221 0.0182809 0.0533344
 0.417555 0.0387606 0.0139511
-0.0759991  -0.138726  -0.058653
  -0.428136 -0.00294633  -0.0218961
 0.408138 0.0424898 0.0304458
   0.409338   0.0311749 -0.00810003
  0.123713  -0.042638 -0.0814522
0.0512803  0.117659 -0.124223
0.0296138  0.131652  0.127493
 0.342914 -0.140731 -0.037961
   0.411458   0.0145882 -0.00321545
   0.352253   -0.132433 -0.00447096
   -0.440433 -0.000701379    0.0948679
  0.20583 -0.148895 0.0727372
0.0114852 -0.146532 0.0550201
 0.0803291     0.1367 -0.0184755
0.00485791  -0.146198     0.1256
0.201528 0.147335 0.105135
  0.124467 -0.0556921  0.0574204
0.362092 0.121915 0.120188
-0.0177064  -0.146425  0.0309265
 0.127102 0.0245315 -0.134154
  0.334057   0.137715 -0.0438785
 -0.125324   0.039052 -0.0401072
 0.127249 0.0263471 -0.106607
  0.282897   -0.15157 -0.0140157
  0.124748 -0.0964331 -0.0548211
  0.100261  -0.132433 -0.0331065
 -0.406532 -0.0475771   -0.10324
  0.328646  -0.143005 -0.0365032
  0.398239 -0.0773686 -0.0430342
 0.0962687  -0.133342 -0.0401405
   0.411885 -0.00986985 -0.00121953
 -0.112425   0.128048 -0.0176101
  0.421967 -0.0352771  0.0489472
 -0.42634 0.0355281 0.0508137
-0.317077 -0.147055  0.108051
  -0.093801    0.134509 -0.00329635
  0.226334   0.152022 -0.0531597
-0.0455556   0.110266 -0.0772343
 -0.122838  -0.124735 -0.0242091
 -0.259768  -0.153862 -0.0773308
-0.381747   0.10937 0.0950543
-0.0859306   0.135279  0.0414933
 -0.22999  0.151074 -0.058634
 0.124839 0.0957141 0.0477338
 0.132201 0.0617694  0.127713
 0.073272  0.139632 0.0801816
-0.0697224  -0.139757 -0.0486553
 -0.328145  -0.142608 0.00688824
  0.251843  -0.153459 -0.0677785
 0.122611 0.0641002  0.043583
 -0.125609  0.0110472 -0.0510021
  0.128935 -0.0176296  -0.140946
-0.184975  0.144677 -0.053819
  0.333368  -0.141712 -0.0842945
 -0.137648 -0.0737796 -0.0728604
 -0.13212 -0.123637 -0.110737
-0.0901413   0.135551  -0.066794
0.0970887 -0.129332 0.0463762
-0.402837 -0.108302 -0.103348
0.0632941 -0.133385 -0.127692
-0.345581  0.139745  0.069105
 0.351115 -0.133244  -0.02049
 -0.409016  0.0307857 0.00267941
0.0205589 -0.146222 0.0970053
-0.00310721    0.146468  -0.0721065
 -0.125181   0.111766 -0.0176111
 -0.325907  -0.143384 -0.0033749
-0.380578  0.108602 0.0855573
 -0.130851   0.126321 -0.0362107
  0.162161   0.137963 -0.0650038
-0.342175 -0.136899 0.0940339
  0.429326  0.0489377 -0.0864797
 -0.121088   0.141784 -0.0783866
  0.205519    0.14904 -0.0393311
-0.126816 0.0989831   0.01982
-0.298168 -0.155726 -0.092858
-0.300076  0.151121  0.100902
 -0.398685 -0.0724771   0.117477
 -0.321214 -0.0788456  0.0649372
-0.265168 -0.152926 0.0628965
-0.131579 -0.080375 0.0447624
  0.218712  -0.169073 -0.0997164
0.0622379  -0.13873 -0.118169
-0.370968  0.115143 -0.103807
 0.124514 -0.124039 0.0181688
  0.123788  0.0278652 -0.0834904
  0.398962 -0.0808517  -0.106493
  0.409439 -0.0339349    0.03794
 -0.305808  -0.148898 -0.0619629
 0.273926 -0.153161 -0.037703
  -0.36942   0.120096 -0.0104334
  0.188543  -0.145327 0.00384196
0.0886096 -0.151767   0.11027
  0.125022 -0.0142398  -0.114697
 0.339695 -0.138271 0.0159431
 0.158109 -0.134821 0.0961708
 -0.145736 -0.0177428   0.112908
-0.200097  0.147721 0.0300386
-0.151287 -0.132056  0.095725
-0.233299 -0.150881 0.0354943
 -0.357244 -0.0831168   0.109975
 0.282022  0.152136 0.0257615
 -0.198895   0.147471 -0.0516625
 -0.125007 -0.0143421 -0.0472292
0.130141 0.107133  0.11594
 -0.124271 -0.0975335  -0.105678
  0.411164 -0.0207104 0.00632874
  0.413264  -0.124176 -0.0776559
  0.147891  -0.133578 -0.0306407
0.00147823   0.150738 -0.0945768
 0.362733 -0.118228  0.121752
 -0.125223  -0.114366 -0.0237792
-0.246208  0.154565 0.0969206
0.0988894  -0.15231 0.0967488
  0.404135 -0.0509467   0.105856
0.0230558 -0.142307  0.125607
 -0.40436 0.0350984 -0.111988
 -0.398427  0.0802855 -0.0218715
 -0.250277   0.162357 -0.0321907
-0.141991  0.131163 -0.105355
 -0.125553 -0.0177045   0.136039
 -0.387026 -0.0987322 -0.0149569
-0.0114849   -0.12517   0.129599
 0.362687  0.126141 -0.025367
 0.0606096   0.141205 -0.0488101
-0.232624 -0.152685 0.0551849
 -0.124805 -0.0243017  0.0096607
-0.363222  0.128801 0.0970516
0.223965 0.147666 0.125701
  0.284858   0.151755 0.00279968
  0.107422 -0.0713162   0.120751
-0.413414 0.0639329 -0.101958
  0.134058 -0.0422903   0.125968
 0.129307 0.0159563 -0.130558
-0.0736382  -0.139033 -0.0226233
  0.0522259    0.142801 -0.00474446
-0.197387  0.146742  0.103185
  0.385876  -0.126911 -0.0658522
 0.372465  0.118757 0.0649583
 -0.40613 0.0453249 -0.104805
 0.397509 0.0786551 -0.036509
  0.0697528   -0.140091 -0.00294505
-0.296226 -0.154851 -0.119597
   0.37927  -0.112171 -0.0455453
0.245957 -0.14818 0.119825
-0.00145889    0.146002   0.0529153
-0.0790021  -0.138103 -0.0418269
0.0975609  0.112941 -0.118532
-0.211547 -0.154684 -0.124827
 -0.403152  -0.057051 -0.0062852
  -0.22596   0.152478 -0.0804773
 -0.40964 0.0379782  0.101606
 0.178823 -0.144407 0.0144869
 0.367018 0.0779055 -0.105237
 -0.178618   0.141755 -0.0697457
 0.288311 -0.151728 0.0633285
  0.402547  0.0639086 0.00093256
-0.263174 -0.153576 0.0114127
  0.168209   0.140431 0.00397495
  0.411751  0.0155115 -0.0464677
 -0.348839   0.141041 -0.0705583
 -0.149743 -0.0933982  -0.125502
-0.233929  -0.15078 0.0340704
 0.368479  0.107687 0.0278881
 0.172459 -0.141789   0.10001
 -0.432288 -0.0137947 -0.0990165
  0.356339  -0.130693 -0.0563306
-0.074709 -0.110581  0.120055
 0.0568284  -0.104458 -0.0798714
-0.0919501  -0.135106  0.0603163
   -0.27485   -0.152957 -0.00157226
  0.401881 -0.0931965  0.0842839
  -0.125012 -0.00673747   0.0109791
-0.0851667  -0.122528  -0.127468
-0.332061 -0.118793 -0.125237
0.0903868  0.148469 -0.109082
 0.128076  0.105909 -0.101308
  0.224662  -0.155867 -0.0939589
 0.301213   0.15111 0.0859362
  0.15622 -0.136094 0.0364701
 0.405578 0.0531492 0.0231966
 -0.203934   -0.14857 -0.0776846
-0.0425478  -0.119114  -0.117275
 -0.139773  -0.129221 -0.0554147
  0.124389  -0.028593 -0.0916286
 0.310294  0.148267 0.0615354
  0.259899   0.152387 -0.0159944
-0.124834 -0.152456  0.104135
-0.385878 0.0526518  0.127663
 0.258385 -0.152538 0.0518048
 0.357142  0.116965 -0.117199
 -0.180203  -0.153747 -0.0754814
 -0.263754  -0.153154 -0.0656995
  0.120581  -0.124304 -0.0953802
 -0.390375  -0.110938 -0.0506602
  -0.39535 -0.0823689  0.0348608
  0.30719 -0.147839 0.0402206
  -0.388131  -0.0968139 -0.00681462
0.00732602   0.143495  -0.126961
 -0.238431  -0.152621 -0.0123779
-0.389555 -0.100247  0.105835
-0.292645 -0.155217 -0.122002
-0.353429  0.147434 0.0656979
-0.377196 0.0309484 -0.111997
  0.404631  0.0549638 -0.0448392
-0.333165  0.141176 0.0172129
-0.354157 -0.131291 0.0304765
0.0114132  0.146133  0.067567
  0.395503    0.08263 -0.0157024
 -0.165981   0.139395 -0.0362236
 -0.141083  -0.129893 -0.0125275
 0.0116781  -0.146117 -0.0739651
 0.333486 -0.124595  0.122188
-0.0529483  -0.143175  0.0198351
  0.260592   0.155648 -0.0884639
  0.124601 -0.0253957  0.0696304
-0.359981  0.125398  0.112089
-0.0590246   0.145786  -0.115102
-0.0502739  -0.143614  0.0246173
 0.413899 -0.105841 0.0186805
-0.0892332 -0.0989984   0.121042
  0.40697 0.0669146  0.035331
 0.353489 -0.119452  0.123621
 -0.123487 -0.0212263  -0.135215
 0.205031 -0.148187 0.0552276
 -0.406335 -0.0482291 -0.0143717
 -0.189863  -0.145658 -0.0794632
0.0750276 -0.107473  0.127943
-0.220364   0.14542  0.121503
  0.395163  0.0749801 -0.0991638
  0.126096 -0.0379372  -0.128544
  0.401531  0.0980535 -0.0391797
-0.408513 0.0590653 -0.108816
  0.377036  -0.113099 -0.0312584
 -0.125713 -0.0203638  -0.134927
   0.0299692      0.14605 -8.95285e-05
-0.296303 -0.150843 0.0644305
  0.371865   0.118817 0.00767815
  -0.42893 -0.0260682 -0.0765081
-0.404626 0.0548074 0.0338138
 -0.128941 -0.0416446  -0.127209
 0.392304 -0.109718 0.0606558
-0.224606 -0.111974 -0.112815
 0.169323  0.107404 -0.121421
-0.376429 -0.114947   0.11574
  0.28173  -0.15256 -0.091286
   0.39718 -0.0772343 0.00340733
  0.421358  0.0646668 -0.0881971
 -0.393449  -0.132012 -0.0100484
 0.0434726   0.148264 -0.0840118
  0.397301  0.0784509 -0.0234544
 -0.392738  -0.117811 -0.0945531
-0.148898  0.132818 0.0469665
  0.129245  -0.142017 -0.0692432
 0.286559  -0.13038 -0.120567
-0.0196557   0.146423  0.0803969
 -0.123995  0.0349011 0.00462974
 0.154193  0.132199 0.0414953
  -0.13668   0.128722 -0.0161488
 0.370596 -0.120353  0.061412
 0.218443 -0.152413 -0.106724
 0.407946 0.0902014 0.0951483
 -0.345156 0.00360372  0.0899477
 -0.425983 -0.0661853  -0.105748
  0.36951 -0.122955  0.120285
0.0810296  0.133064 -0.127538
 0.377988 0.0162493  0.027949
 -0.423868 -0.0367854  0.0853399
 -0.140371 -0.0977334   0.118581
  0.375755   0.116771 -0.0412976
  0.296666  -0.150642 -0.0320764
 -0.331806   0.141288 0.00366948
   0.430916   0.0118428 -0.00399911
 0.356187  -0.13127 0.0743853
 0.331508 -0.142938 0.0824987
   0.40896 -0.0913288 -0.0476544
 -0.14204 0.0831727  0.124226
-0.308886 -0.149541 -0.079485
-0.103732 0.0876998  -0.10063
 0.351994  0.144274 0.0875065
 -0.124445 -0.0513079  0.0169674
 -0.160394   0.137651 -0.0941162
  0.124344 -0.0498921 -0.0613429
 0.152982 0.0990268  0.134953
-0.136194  0.128698 0.0331969
   -0.41011    0.015464 -0.00298863
 -0.411765 -0.0482993  0.0835355
 -0.370608  -0.118401 -0.0968009
   0.41107 -0.0369908  -0.071166
  0.364559   0.124824 -0.0509205
 -0.318814   0.145238 -0.0502821
  0.418189 -0.0599042  0.0967869
-0.0238163   0.128255   0.101108
-0.245673 -0.146908  0.105754
-0.0259863   0.156801 -0.0958036
-0.0954742  -0.133915 -0.0302211
-0.122516 -0.106407  0.102442
  0.376568  -0.114454 -0.0174909
 0.160888  0.138174 0.0133184
 -0.314503   0.147913 -0.0797995
-0.171381 -0.119308 0.0518342
  0.409066 -0.0374598  0.0347911
-0.0854386  -0.136866  0.0632464
-0.108151  0.129698  0.105953
0.0519287   0.14236 -0.048818
 0.415587 0.0489589 0.0745396
  0.157289  -0.147889 -0.0753476
 -0.154197 -0.0898687 -0.0718944
0.188949 -0.14236 0.115636
   0.34782  -0.134389 -0.0343566
 0.316557 -0.146166 0.0137842
-0.0416765  -0.145344   0.112913
 0.363237  0.125024 0.0339222
-0.361681 -0.122141   0.11821
-0.401319 -0.100984 0.0388205
 0.103229 0.0950215  0.109784
  0.295824 -0.0776444 0.00888706
 0.114293 0.0335244 -0.126905
 0.389509 0.0842731 -0.115656
   0.12567 -0.0292783 -0.0389241
    0.0159  -0.146054 -0.0592863
   0.28139  -0.152595 -0.0367019
  0.126808   0.121033 -0.0894943
  0.253759  -0.153772 -0.0342418
-0.343531 -0.131081 -0.128052
 -0.15269 -0.139805 0.0866433
 -0.406488 -0.0506257 -0.0305533
 -0.381918 -0.0780055  -0.114608
 -0.404932  0.0560752 -0.0146819
-0.0070585   0.143445   0.123068
 0.345569  0.135568 0.0318302
  0.195325   0.147249 -0.0713828
0.0896763 -0.138143 -0.100498
   0.230082   -0.152763 -0.00691209
 0.399972  0.100899 -0.025224
  -0.2853  0.152163 0.0748045
-0.169163  -0.09379 -0.113909
  0.403386  0.0536656 -0.0158923
-0.265722  0.153656 0.0194467
-0.0422865   0.144383  0.0747905
 0.253803  0.154496 0.0884346
 -0.415388  0.0258682 -0.0978367
 -0.283637  -0.146502 -0.0531596
  0.387204 -0.0989383 -0.0899269
 -0.126039  0.0179922 -0.0329451
-0.0044063  -0.151873 -0.0735124
 -0.294572   0.128652 -0.0413971
 0.411281 0.0223006 0.0204484
   0.2758 -0.153187 0.0880897
 -0.368636  -0.131213 -0.0885387
   0.409973   0.0269124 -0.00530086
-0.0251401    0.14594 -0.0381075
-0.0817622  -0.137177  0.0383531
   0.28743  -0.152606 -0.0898505
   -0.276159     0.152134 -4.23275e-06
 -0.242349  -0.153067 -0.0209722
0.0943836 0.0555038  0.116761
 0.299049  -0.14979 0.0687292
 -0.408153 -0.0699053  0.0198945
  0.350181  0.0857702 -0.0998583
 -0.346047   0.147821 -0.0741406
-0.167425  0.139089 0.0413134
  0.391972   0.139386 -0.0778053
 0.376084 -0.126209 0.0861896
 -0.412219  0.0117545 -0.0977628
0.181708 0.141388 0.102592
  0.274547  -0.154035 -0.0799341
  -0.36781    0.15141 -0.0910815
-0.229964  0.152145 0.0585152
 -0.405129 -0.0155906  -0.131142
  0.414377   0.099263 -0.0851222
 -0.29477  0.151199 0.0771758
  0.150722   0.134426 -0.0326208
0.188009 0.110836 0.101627
0.0876232 -0.133161 0.0579939
0.0591792  0.141841 0.0141405
  0.358047  -0.129574 0.00689885
  0.370318  -0.120105 -0.0144955
   0.152216   -0.135188 -0.00393046
 0.102438  0.112519 -0.108122
  0.112058 -0.0764854   0.132023
 -0.190651   0.145742 -0.0198341
 -0.12345 -0.027679  0.113374
   0.397429  -0.0765497 0.000641031
   0.123684  -0.0632724 -0.00388196
-0.0121404   0.145915 -0.0700183
-0.277179 -0.172636 0.0572369
 -0.377465   -0.13085 0.00216223
 0.0264121  -0.145952 -0.0715887
-0.0196879  -0.145983  0.0599098
-0.421771 -0.090738 0.0729625
-0.408227 0.0875031 0.0298294
-0.338679 -0.139076 0.0201384
 0.299105  0.148656 -0.119368
-0.387702 0.0995534 -0.091669
  0.108611 -0.0479342   0.124178
 0.335105 -0.141301 0.0217394
-0.359821 -0.115304  -0.11845
 0.402917 -0.065189   0.05126
-0.0403006   0.144472 -0.0632493
-0.0757807  -0.133207  -0.114642
  0.404486 -0.0615072 -0.0932514
  0.32514 -0.128165  0.112926
-0.339302  0.140654 0.0982559
-0.216203  -0.15024 0.0146651
-0.125743 -0.111372 -0.122824
  0.124556 -0.0283189   0.129255
 0.341454 -0.139651 0.0939815
 0.340166  0.155481 0.0737024
 -0.10984 -0.145316 0.0996508
 0.388877 -0.130724 0.0352749
  0.233722   0.169737 -0.0613024
 -0.298302   0.162467 -0.0965991
-0.141768 -0.130645 0.0416488
 -0.172754   0.141226 -0.0107588
-0.362514 0.0882313  0.128007
 0.0323538   0.145725 -0.0395586
 0.388664 0.0991584 0.0241008
  0.373141  0.0866877 -0.0517162
 0.277785 -0.150707   0.12435
-0.243826  0.152207 0.0549623
-0.0389322  -0.144606 -0.0223408
 -0.0321543    0.144818 0.000574968
-0.262144 0.0958582  0.083646
 -0.368751   0.127987 -0.0580056
  0.318117    0.14618 -0.0515011
-0.362337 0.0820676  0.133244
-0.000294488    -0.147107   -0.0565396
-0.215255  0.115329  0.123778
 -0.26542  0.153821 0.0672575
-0.0203079  -0.146179   0.024767
 0.211095 -0.126091 0.0992235
-0.159932  0.131633 -0.100964
-0.00612492   -0.146088   0.0445512
   -0.12231   -0.125141 -0.00686218
  0.148806   0.137967 -0.0890016
0.0205485  0.145747 0.0484337
 0.377306  0.113341 0.0239068
-0.315076  0.154486 0.0870979
0.341623   0.1013 0.111551
 0.124436 0.0228151 0.0703425
-0.0286368  -0.134072  -0.118923
 0.310505  -0.14743 0.0447432
-0.0864307  -0.102963  -0.115017
