  0.247253   -1.51473 0.00969787
-0.0741355  -0.402681 0.00856373
-0.0392524   0.086074   0.216166
-0.400733 -0.404836 0.0989407
   0.0802042 -0.000767466   -0.0619717
-0.451298  0.353704  0.156437
0.614292 0.517917 0.987974
-0.223936 -0.176297 -0.226864
-0.316512  0.101924 -0.118755
-0.088021  0.149894 -0.283842
 0.273442  0.220003 -0.371536
 -0.10299  0.585738 -0.194472
-0.101406  0.433795   0.25683
-0.269006 -0.397647 0.0433823
 0.0155697  -0.374636 -0.0299993
  -0.150274 -0.00730345    0.357051
-0.0757086  0.0634021  -0.150885
  0.282316  0.0345837 0.00774813
-0.764203 0.0647122 -0.156301
  -0.13229   -0.42352 0.00922126
-0.159574 -0.201971  0.240783
-0.123304  0.330906  0.288801
0.0169695 0.0437074 -0.104947
0.0444783 -0.442638  0.531848
 -0.368508 -0.0181252  -0.123637
-0.0394267  -0.283641   0.288155
 -0.278441 -0.0695386  -0.165055
0.148488  0.18775 0.121935
0.135911 0.128756  0.06436
-0.0421093  -0.378667  0.0181142
 0.311864  0.255737 -0.525113
-0.510866 -0.127042  0.240838
-0.137246  0.402685 -0.201769
-0.384243 -0.390363  0.124432
0.000621322    0.049101  -0.0984727
 0.159911    0.5538 -0.490061
-0.0324179  -0.277325   0.279117
 -0.211035  0.0536488 -0.0257833
 0.230134  0.329691 -0.600353
-0.874797 -0.268187 -0.370215
 -0.13659 -0.372606 0.0287846
 0.123689 -0.326866 -0.272163
 -0.242579  0.0446776 -0.0538018
-0.022771 -0.376095 0.0263119
-0.124842  0.192975   0.26611
-0.392053 -0.364847  0.484792
 0.359142 0.0347457  0.353765
-0.231564 0.0171478 -0.098832
-0.125109  0.251495 -0.272233
0.259827 0.235367 0.492831
0.0380715 0.0528658 0.0353996
0.172331 0.113574 0.207246
 0.200785 -0.138538 -0.125369
-0.251943 -0.105121  0.211818
-0.121333  0.229891 -0.276522
0.162721 0.157445 -0.13175
0.170078 0.131858 0.184323
-0.165659  -0.41435 -0.491389
 -0.149646 -0.0219268  -0.257437
  0.141249 -0.0898124  0.0955377
0.0782516 -0.177469  0.205853
0.179675 0.157762 0.196976
-0.100406  0.405455 -0.265402
 0.115826 -0.285547 -0.250435
 0.150214 -0.417469  0.088394
   0.0855275 -0.000773624     0.111086
-0.113905  0.225108 -0.288809
0.00718449  -0.367546   -0.37747
-0.0511674   0.209667   0.360092
 -0.170914 -0.0318152   0.357103
-0.193531 -0.294522 -0.310321
-0.775827  -0.27511 -0.380847
    0.19494   -0.159812 -0.00735563
-0.105761  0.113433 -0.196825
-0.0244238   0.293655   0.393567
 -1.38827 0.0268932 -0.181323
-0.255687 0.0419219 0.0572342
-0.100028 0.0792396 -0.268068
 -0.144583 -0.0126687  -0.232702
 -0.162357 -0.0371441   0.263549
-0.206978 -0.373097 0.0575746
 0.110964 0.0910399 0.0363687
-0.100834  0.509974  0.218484
-0.0872954    0.21316   0.334317
-0.0599402   0.273917   0.365937
 -0.223234  0.0509099 0.00990072
-0.0789266   0.204222   0.337471
-0.0974004   0.255327  -0.316554
-0.0930082  0.0801437  -0.222313
-0.0280497   0.124235   0.284521
-0.0808539   0.217599   0.340837
 -0.14101 0.0138185  -0.13003
-0.0971126   0.111399  -0.213727
  -0.160319   -0.382861 -0.00275667
-0.736897 -0.366329 -0.487963
 -0.13106  0.425625 -0.190904
0.0188804 0.0423544 -0.120774
-0.0520241  0.0531348   0.145595
-0.0934466    0.16968   0.310282
0.275806 0.165825 0.386252
-0.0963252   0.214329  -0.309801
 -0.749825 -0.0375514  -0.138963
0.00712238   0.113881   0.265388
  0.203171  -0.154521 -0.0902207
-0.110345  0.179899  0.314125
   -0.269598 -5.73849e-05     0.128001
-0.529241  0.419245  0.142142
-0.087549  0.288031  0.343683
  0.102215  0.0652228 -0.0956101
0.000812844    0.253661    0.411431
-0.275049 -0.369961  0.460267
 0.0694788 -0.0873353   0.159538
 0.222225 -0.016306  0.229555
-0.0759157   0.138668  -0.286757
  -0.594847 -0.00474823   -0.114812
0.0723017 0.0285044 -0.105002
-0.544389  0.969518 0.0422861
0.202326 0.180519 0.385469
 -0.259092  0.0424243 -0.0389705
0.028884 0.548269 0.366488
-0.0843932   0.151129   0.306107
  0.04457 -0.270116  0.261806
-0.0341257   0.257747  -0.366594
 -0.632591 -0.0102608 -0.0963304
0.0370453 -0.147435  0.180169
-0.313813 -0.326119 -0.260938
-0.103915  0.206903 -0.299335
  -0.22802  0.0992116 -0.0969323
  -0.140713 -0.00622012    0.282809
-0.220896 -0.396582  0.489663
0.166146 0.228676  0.16968
-0.119589 0.0347558  0.305216
 0.150884  0.151015 0.0599637
0.0777584 0.0341877  0.111721
 0.0648471 -0.0770222    0.15371
 -0.534571 -0.0594476  -0.160612
-0.0380454   0.171869   0.354498
0.0339612 -0.389232 -0.023116
0.0090392 -0.286158  0.269195
-0.111223   0.14738  -0.23781
 -0.683822 -0.0157485 -0.0283421
7.56832e-05    0.223965    0.404843
-0.0407428  -0.419548  -0.479718
-0.181425 -0.330829 -0.360509
-0.120189  0.198815  0.284042
 -0.208552 -0.0133311  -0.123142
-0.115444  0.353884  0.308174
-0.0999943  0.0373985  -0.519863
  0.112311 -0.0595197  0.0720916
-0.102785  0.147337 -0.255351
   1.00747 -0.0667074  -0.811763
-0.441972 -0.398084 -0.121756
-0.0786631   0.239448  -0.329549
-0.167041 -0.377246 0.0311514
0.152198 0.156059 0.105151
0.140675 0.213454 0.117505
0.146102 0.176651 0.115115
-0.383561  0.215924  0.171408
-0.221933 0.0698873  0.104745
 -0.122414  -0.420838 0.00839472
-0.665978 -0.361017  0.470319
-0.00900626    0.572461   -0.299566
-0.192459  0.059166 0.0174125
-0.0997911   0.275257   0.333045
 0.108162 0.0562338  0.191794
-0.0444073   0.284815   0.378155
-0.163807 0.0369299  0.118742
-0.0999004   0.211652    0.32399
0.0378435  0.416098  0.413887
 -0.172769  0.0633582 -0.0334274
-0.0924756   0.140232  -0.285004
-0.42799 0.447523 0.128001
-0.209608 0.0572342 0.0993543
  0.20853 -0.114978  0.201452
-0.119968  0.201127 -0.267795
 0.120495 0.0872686  0.120935
-0.115618  0.427193 -0.219594
 -0.237308  0.0464838 -0.0313764
-0.11887 0.350207 -0.29244
-0.112351 0.0492777  0.244279
-0.516522 0.0697491 -0.136435
 -1.06938  0.298464 -0.164243
-0.108723  0.434148 -0.226157
-0.0782247  -0.307467  -0.307449
 0.277209 0.0759942 -0.297116
-0.140467  0.417101 -0.180411
  0.147128 -0.0687647   0.158066
-0.415483 0.0164988 0.0924265
  0.114763 -0.0648735  -0.144129
 0.167557  0.176125 -0.149619
  -0.65863 -0.0130593  0.0844184
 0.161014 -0.110873   0.10441
 -0.170411 -0.0144269   0.154178
-0.102809  0.506261  0.216318
 0.192102  0.147565 -0.311657
 -0.10194   0.24202 -0.311165
  0.427493 -0.0010476   0.310637
-0.0364886   -0.15746   0.179387
-0.172369 -0.189516  -0.21653
-0.0981131   0.309539   0.332905
0.00380332  -0.399049 0.00809948
 0.166681  0.114303 -0.177493
-0.0880245   0.159663   0.308956
-0.492796  0.351827  0.158953
 0.055027 -0.318372  0.304504
-0.0866993  0.0821968  -0.187041
-0.437795  0.424638   -0.1171
0.0378185 -0.238902 -0.224862
  0.133024   0.112432 -0.0883149
0.0145626 -0.291696 -0.265798
-0.115683  0.140673  0.237116
 0.0201535  -0.389447 -0.0114408
  0.0249813 -0.00619795   -0.110879
-0.0685844   0.229552   0.353345
 -0.318371 0.00106725  -0.108343
 -1.54099 -0.268014  0.367157
0.0744092  0.152528  0.324061
-0.350206 0.0819822 -0.115758
-0.104488 0.0648632  0.305245
 0.275973 -0.415724  0.220827
  1.61317 -0.250255  0.120038
 -0.131994 0.00818561    0.24356
 -0.184925  0.0618506 0.00772239
 -0.169373 -0.0393736  -0.293197
 -0.33973  0.425557 -0.110448
  -1.3805 -0.554246  0.272015
 -0.914067 -0.0799213  -0.176914
 0.108459 -0.420838  0.471701
-0.118135  0.310529 -0.285147
-0.793736   0.16269 -0.167258
0.0250154 0.0927415 -0.212293
0.445543 0.016792  1.66516
-0.134844 -0.295859 -0.303005
0.0470547 -0.204824  0.220221
-0.0555614   -0.47762 0.00970717
  0.32788 0.0483731    1.3613
-0.173931 0.0766686  0.111344
-0.102827  0.238154  0.327381
-0.105033  0.273484 -0.309605
  -1.48659 -0.0287955   0.200358
  0.102999  0.0800867 -0.0406021
 -0.25851 0.0358701 0.0998878
-0.0641668   0.253742  -0.343437
-0.183686 -0.424174 -0.514159
-0.117891  0.205335  0.292186
-0.138686 -0.237692 -0.247249
-0.103184 0.0772845 -0.147793
-0.505674 -0.392979  -0.18415
-0.359939 -0.401436 0.0821354
-0.122525 0.0294626  0.270257
-0.051583 0.0804737   0.20522
-0.125293  0.237743 -0.271857
-0.377434  0.429626 -0.111895
-0.428517 0.0271846 -0.104419
 -0.150852 0.00492639  -0.128672
0.0939957 0.0389914   0.14872
-0.154268  -0.19163  0.631493
-0.398973  0.291427 -0.149411
  0.19005   0.09463 -0.240156
-0.0788554  -0.305141   0.322405
  -0.191945   -0.387971 -0.00711934
-0.309217 -0.423562  0.566912
-0.091685 0.0925593  0.269874
-0.0864428   0.158888  -0.291542
 -1.28519 -0.446379 -0.561946
  0.14241   0.21781 -0.105253
0.311301  0.15302 0.406877
 0.107015 0.0864926 0.0548744
 -0.166118  0.0598217 -0.0591599
-0.0193784  0.0683226   0.180092
 -0.145667 -0.0152154   0.254387
 0.014315 -0.391982 0.0246604
-0.211276 -0.316149  0.188276
-0.138737  0.436835  0.188125
 0.275862 0.0287193 0.0450929
-0.116461  0.368345 -0.267566
  0.117588 -0.0387739  -0.125026
 -0.256991  -0.422903 0.00880738
  -0.143276 -0.00304608    0.185767
-0.276545  0.111247 -0.113054
0.265404 0.396814 0.647699
-0.0982802    0.18344   0.312636
  0.13604 0.0970768  -0.23318
-0.0997295   0.357386   0.314015
  -1.00791 -0.0833234   0.195881
 -0.132636 0.00975661   0.186472
-0.102311  0.250654  0.329208
-0.0867671   0.138927   0.291409
-0.104144  0.104943 -0.179965
-0.0852263   0.584271   -0.21237
0.0928928 -0.384482 0.0994843
0.000960522   -0.418176  0.00880218
-0.359783  0.424623  0.130023
 0.15829 0.168853 0.138305
  -1.46411 -0.0662682  -0.178221
-0.0869584   0.186763  -0.306591
  0.125178 -0.0658887   0.104265
-0.0921731  0.0877668    -0.2394
-0.309735  0.159036  0.155644
-0.439707   0.37482  0.149977
-0.110713  0.382203 -0.269123
-0.104194  0.431438 -0.236962
 -0.299577    0.56003 -0.0899947
-0.167305 -0.289681  0.242971
 -0.459925   0.010312 -0.0533864
-0.100154  0.229679 -0.310887
  0.135192 -0.0825766   -0.15613
-0.102225  0.263612  0.330892
 -0.191936 -0.0126802   0.143632
  0.190665 -0.0462193   0.203726
-0.103357  0.300818  0.329103
 0.110553 0.0736491  0.120485
-0.104812  0.307536  0.326575
 0.184702 0.0299671 -0.206714
-0.121799  0.169351  0.255698
 0.203028 -0.396126  0.193754
 -0.362986  0.0139168 -0.0976993
-0.131871  0.380037  0.246929
-0.108233   0.05967   0.26191
 -0.171076  0.0616876 -0.0440582
0.0351635 -0.371061 0.0682371
-0.107178    0.3361 -0.300773
 0.238604 -0.195686 0.0397714
-0.114562   0.34756 -0.293027
-0.0460539  -0.278123   0.265275
 -0.192189 -0.0645059  -0.281206
 -0.214829 -0.0599329   0.176067
  0.185175 -0.0905247  -0.173035
  0.14162  0.137808 0.0326728
0.0136975 0.0705908   0.19145
-0.0835224   0.110261   0.260377
 -0.13166  0.349973 -0.246469
 0.144552 -0.407026  0.104435
  0.312013 0.00426263    1.45953
0.0532681 -0.011039 -0.116132
-0.0409879   0.587692  -0.260809
  0.0926486 -0.00288127    0.136909
-0.100191 0.0555596 -0.179911
0.157026 0.133866 0.303962
 0.089403 -0.318348  0.259315
 0.194737 -0.128097   0.15371
 -0.14422 -0.322745 -0.339841
-0.0790692   0.186517   0.329966
-0.358217  0.403829 -0.117887
0.0539946 -0.397869 0.0420816
-0.0150592  -0.285309   0.249461
-0.394626 -0.065369  0.181644
-0.00726508   -0.424634  0.00873392
-0.102986  0.221966  0.323094
   -0.151856    -0.383629 -0.000668897
 0.107566 -0.196665  0.220587
 0.186198 -0.152151 0.0412015
-0.121404   0.29419  0.299735
-0.0959303   0.212362   0.327239
-0.0949401   0.155273  -0.277414
-0.0725558   0.319322   0.351725
-0.443483 0.0527161  0.137433
-0.027101  -0.18496 -0.188654
-0.343936  0.116288  -0.13011
 -0.161683 -0.0330835   0.220479
-0.168953 -0.396164 0.0092206
 -0.178218 -0.0279139  -0.148597
-0.127816  0.292031 -0.267592
-0.132434  0.406735  0.221913
-0.413956  0.203277  0.172558
  -0.314521   0.0319746 -0.00450024
-0.498954  0.241309  -0.15844
-0.118003  0.153692 -0.232364
-0.604282 0.0427995  0.154371
 0.208191 -0.166076 0.0819308
-0.328156  0.131583  0.150365
0.360885 -0.27579 0.189457
0.184999 0.175338 0.208577
 -0.134999 0.00387046  -0.180486
-0.434129  0.137959  0.164865
-0.233101  -0.38256 -0.035567
-0.103782  0.290468  0.328791
-0.0944445   0.171827  -0.292772
-0.252657 -0.378602 0.0717728
-0.0579057   0.304897   0.365884
-0.0719193   0.283601    0.35636
0.00527281    0.14904  -0.302135
-0.903865  0.212821 -0.168968
-0.0338911  -0.368072   0.404122
  0.216124  -0.175802 -0.0280834
 -0.152378 -0.0256073  -0.220095
 0.0700031 0.00578096   0.135201
-1.31553 0.446355 0.164412
 0.39922 0.127648 -1.29698
-0.218729 -0.399665 -0.476514
-0.0781262  -0.276101   0.286407
0.0785554  0.021979 -0.117719
-0.0983105  0.0591502   0.122563
-0.356615  0.390595 -0.122053
 0.096736 -0.366464  0.141764
  0.200125 -0.0647338   0.205755
-0.108413 0.0850605 -0.145531
   0.1493 0.0830282  0.195079
 -0.37427 -0.147955  0.264539
-0.0660784   0.220001   0.352301
  0.109152 -0.0805511  -0.148469
 -0.463494 -0.0360914  -0.139563
-0.0500598     0.3011  -0.355541
  0.134289 -0.0693747   0.122984
-0.112899  0.299506  0.314602
-0.101274  0.295178 -0.313551
-0.150044 -0.012985 -0.318404
-0.38285  0.43849 0.127852
-0.117671 -0.347579 -0.372034
-0.0426084  -0.315986   -0.31088
 0.544653 -0.413821 -0.240412
 0.179409 -0.147359 0.0100533
 0.204474  0.129504 -0.286434
-0.079537  0.122956  0.284755
  -0.428436 -0.00319147   -0.112102
-0.105982  0.328505 -0.304355
 -0.218097  -0.379576 -0.0344661
  0.137065 -0.0297244   0.169771
-0.100893  0.175736  0.311246
-0.34763 0.134417  0.15389
-0.291602 -0.362587 -0.433891
-0.137945  0.429532 -0.177006
-0.277168  0.117115  0.131733
 -1.49075 -0.499303  0.672836
-0.0993877   0.135158  -0.246933
-0.0532231   0.253943   0.369174
 -0.173826 -0.0387456  -0.324413
 0.114373  0.090484 0.0855979
-0.125255  0.353554 -0.258433
 0.166263 -0.357248  0.256824
-0.127167  0.265234 -0.266287
  -0.1092   0.38018 -0.273311
-0.315124 0.0315012 0.0378712
 -0.378779 -0.0506236  -0.151331
 0.10198 0.229317 0.460389
-0.103047  0.261668 -0.312139
-0.105825  0.320666  0.323197
-0.509878  0.223026 -0.158639
-0.00582526   -0.493645   -0.627218
  0.12806 -0.196081  0.222335
0.154157 0.197354 -0.12156
 0.0928929 -0.0975386   0.169576
-0.462167  0.119923 -0.145659
 0.127798 0.0647307  0.208175
   -1.38394  -0.0899333 -0.00705562
 0.222691 -0.182484 0.0170799
-0.338077  0.489968  -0.09592
 -0.149666 -0.0188247   0.290625
-0.105515  0.329159 -0.304137
-0.0970976    0.37683  -0.287412
 0.0981355 -0.0247342 -0.0919345
 0.244459 0.0253727  0.259409
-0.137671  0.407103  0.211007
-0.101158 0.0690849 -0.140202
 -0.30838   0.14392 -0.134473
-0.114523 0.0586741 -0.104957
-0.109579  0.337743  0.316723
  0.482585 -0.0175029  -0.365971
 -0.145274 -0.0134611   -0.26011
0.0788803 -0.212383 -0.208926
0.0479705 0.0136975 -0.114001
-0.0405755  -0.179803  -0.183872
 0.166739 0.0347934  0.214722
 -1.56207 0.0349221 -0.186594
-0.167239 -0.281058 -0.286984
-0.0818067  0.0549681   0.143961
-0.826478 -0.232236 -0.330406
-0.265077 0.0114395  0.118976
0.940509 0.265497 -1.08118
-0.200312 0.0554797 0.0477056
0.172195 0.167034 0.175885
-0.104927 0.0625656  0.245324
 -0.09299  0.170759 -0.293717
 -0.134568  -0.448092 0.00935302
 0.0973053 -0.0204757  -0.100104
-0.0795421  0.0784576   0.203554
 0.162999 0.0977338  0.205711
-0.123777  0.307417 -0.274384
0.147035 0.130224  0.12065
  0.149519   0.150826 -0.0329292
-0.126766 0.0198959 -0.254607
 0.349614  0.379357 -0.713806
-0.090443  0.270967 -0.323029
-0.475554  0.386444  0.148008
0.166729 0.206509 0.169385
 -0.187442 -0.0277595  -0.137693
0.140842 0.179914 0.374528
-0.0792763   0.157475  -0.296064
-0.464211  0.205416 -0.156996
-0.246176 0.0431239 0.0837023
 -0.171805  -0.419045 0.00833983
-0.108912  0.111242  0.197973
 0.103036 -0.134464 -0.170398
-0.110171   0.21801 -0.294153
-0.114642  0.290884 -0.294986
0.00995617    -0.4118     -0.456
-0.108753   0.36324  0.303376
 0.136995 -0.325152  0.293042
  0.16534  0.317639 -0.135552
 0.215709  0.037454 -0.228915
-0.109502  0.357608 -0.288107
-0.0718828   0.110012  -0.342355
-0.213916 -0.383713  0.465786
 0.214739 -0.176174 0.0313963
-0.0890186   0.287994   -0.32456
-0.0781516   0.116203   0.277148
 -0.195866  -0.398602 0.00851309
-0.0540364   0.148727   0.332198
-0.130368  0.369142  0.256212
-0.105716  0.256501  0.325856
-0.0990619   0.191645  -0.298835
-0.323592 0.0200872  0.110264
0.440493 0.162318  1.30212
0.0931111  -1.62685 0.0105004
-0.041282   1.63378 -0.374366
 0.130408 0.0910038 -0.122518
-0.0607821   0.310538  -0.345471
-0.104346 0.0661139 -0.235627
-0.165062 -0.289357  0.232121
-0.0591824     0.2298   0.360074
 0.215526 -0.166336  0.104403
0.167927 0.153952 0.165431
 0.167527 -0.186885 -0.203895
-0.105121 -0.314606 -0.321406
  -0.48081 0.00794735 -0.0488303
 0.132996  0.520278 -0.467691
 -0.316047 -0.0706122   0.183286
-0.264129 -0.369336 0.0989777
 0.106425 0.0506174 -0.136722
0.0939304 0.0700077  0.039662
 -0.361264  0.0242937 -0.0159575
0.178649 0.189993 0.193721
-0.117091  0.171583 -0.251707
0.0373213 -0.388065 0.0439966
-0.143364  0.423403 -0.166292
0.0712271  0.709802  0.396383
 -0.11221  0.265192 -0.298027
-0.114848  0.365637  0.301782
0.0189095  0.622425  0.345435
-0.221179 -0.292575 -0.293537
-0.0542677   0.133759  -0.352195
0.000896969   -0.191106   -0.192422
-0.120987  0.261467 -0.281221
0.245989  0.10935   1.0565
-0.524123 -0.383117 -0.537454
  0.123748   0.100491 -0.0821657
-0.0247846  -0.184039   0.205083
  0.196915   -1.84154 0.00838437
 0.147034 -0.110642 0.0445818
-0.252994  0.470736  0.118713
  0.237291  -0.194288 0.00654939
-0.10599 0.326501 0.322224
-0.0848351    0.14485  -0.283006
  0.14839  0.148284 0.0700574
-0.101258  0.216575 -0.306561
-0.183761 0.0572058 0.0744796
-0.113943   0.20624 -0.282033
-0.123497  0.526283  0.190788
 0.337751 0.0546691 -0.332328
-0.0935148  0.0915262   0.290939
 0.254615 -0.183429  0.172936
 -0.566425 -0.0766168   0.194291
 0.201634 -0.116195 -0.179784
-0.137447  0.404435 -0.195349
-0.0984505   0.186926  -0.297504
 0.150296  0.151314 0.0768034
-0.0753824  -0.432486   0.301504
  -0.86368 -0.0589089   0.175458
 0.226367 -0.426435 -0.122754
0.0991228 -0.340524 -0.306193
-0.091831  0.164589  0.308348
-0.211386 0.0938484  0.112614
 -0.167318 -0.0116987  -0.411978
  -1.35267    1.34058 0.00901806
 0.248281 0.0771998   1.13728
-0.507012  0.174944 -0.157687
  -1.4898 -0.180886 -0.262138
-0.821068 0.0730546  0.179939
  0.220845 0.00520163   0.235278
-0.106175  0.371742 -0.282726
   0.1462   0.16299 0.0943092
-0.463588 0.0571156 -0.124921
-0.464242 -0.414302  0.109991
-0.11153 0.368516  0.29533
 -0.257344 -0.0417728  -0.141595
-0.243832  0.524495 -0.102246
-0.107596  0.278119  0.324513
 0.0305153  -0.425889 0.00891482
0.0817944     0.667  0.409638
 -0.200516 -0.0634809  -0.153843
-0.131945   0.42757  0.207481
 -0.155572 -0.0133885  -0.153141
-0.145391 -0.187032  0.222814
  0.191922 -0.0420601   0.205503
 -0.148659 -0.0168716   0.268923
 -0.09381  0.124959 -0.243279
-0.103165  0.242132 -0.309769
-0.101637 0.0752007  0.289097
  -1.1613 -0.153064  0.261859
-0.309917    0.1479  0.153531
-0.304509 -0.127331  0.241156
-0.407439  0.325417  0.161083
-0.327088 0.0291002 0.0869427
 -0.15349 -0.393059 0.0082978
 -0.40289 -0.381714  0.164236
-0.0155708   0.537274  -0.298665
-0.0915247  0.0589644   0.126954
 -0.153206 -0.0236947   0.227927
-0.106174  0.331114  0.321072
0.0769237  0.231044  0.463741
-0.124598  0.210841  0.282466
-0.366758  0.358013  -0.13257
-0.0815094  0.0577119   0.131185
-0.591924  0.153153   0.17642
-1.48275 0.454004 0.166664
-0.0751649   0.323092  -0.330852
 -0.20512 0.0537505 0.0546529
-0.560128  0.280409 -0.155701
-0.0163514  0.0779957   -0.18273
-0.0951029   0.168675   0.307186
-0.100799  0.144624   0.27239
-0.119552  -0.27632  0.285375
-0.109825  0.342836  0.310253
  0.136039   0.126972 0.00879798
-0.209747 -0.280262  0.315543
-0.0966029        0.4   0.291127
-0.406439 0.0900884 -0.130197
-0.0867682   0.180093   0.320836
-0.0987439   0.157732  -0.273902
-0.00689292    0.149237     0.32096
-0.0492369  -0.406149  0.0085121
   1.1483 -0.804587  0.243254
 -0.21122 -0.118308  0.197326
-0.116991 0.0405263 -0.282612
0.00907355   0.168839    0.46847
-0.281394  0.464115 -0.100753
-0.125375  0.321989 -0.270871
-0.0426767   0.298958    0.37865
 0.123118 -0.100295   0.17757
-0.104471  0.319013  0.325599
-0.569571  0.191258  0.177796
-0.0963763   0.169358  -0.288055
0.0389126 -0.157925    1.5774
-0.0963933  0.0792898   0.316211
-0.330506 -0.310026  0.378886
-0.0931244   0.129015   0.268942
-0.110713  0.223894  0.311886
 0.166008 -0.102822 -0.117791
 -0.426083 -0.0757506   0.191221
  -0.643648     1.57022 -0.00814073
-0.74292 0.550811 0.112996
 0.191336 -0.391926  0.385436
-0.250386 0.0439944 0.0422167
 0.174929 -0.106921   0.14905
 -1.60012  0.204773 -0.183487
-0.00108442   -0.338305    0.351445
 -0.349621  -0.418338 -0.0211193
  -0.228913    0.049408 -0.00987411
0.00509148   0.639038   0.325963
-0.423926  0.183594 -0.153354
-0.0820071  0.0912821    0.23122
 -0.149149 0.00934173   0.143282
0.0423399 -0.310876 -0.281294
0.177239 0.263179 0.189023
-0.0121409   0.279585   0.403193
0.670216 0.948971  1.01605
-0.0865247    0.10423    0.28667
-0.452143 0.0357495  -0.11237
 -0.768554 -0.0254725 -0.0352362
-0.383849  0.183916 -0.151501
  -1.05682 -0.0922035  -0.184991
-0.566085 0.0291771  0.144213
 -0.414343  0.0165804 -0.0646968
-0.134479 -0.364396 0.0353206
-0.581978  0.110164 -0.153179
  0.239965 -0.0819944  -0.210497
0.00808828  -0.389403   0.024178
-0.0952324   0.241923   -0.31676
-0.146577  0.436119 -0.161988
0.0600744  0.519615  0.407562
-0.108833   0.37123 -0.280785
-0.433244  0.367425 -0.133839
-0.0767209   0.121497   -0.27084
  1.19475 0.0204835    1.0832
0.0497966 0.0741543  0.205401
-0.536055 0.0304566 -0.122925
-0.0240792  -0.454949 0.00915201
-0.048865   0.27291  0.374628
0.0082613 -0.190667  0.209296
-0.0737388  0.0545795  -0.132738
-0.453263 -0.330616 -0.404033
  -0.19875 -0.0423263   0.165129
-0.0890348   0.214107  -0.315616
0.0506055 -0.220192 -0.212689
-0.108672  0.324003  0.322733
0.0420864 -0.346438 -0.103656
  0.122908 -0.0762311   0.168132
-0.369712 -0.078671 -0.174449
 -0.484718 -0.0100093   0.135596
-0.104427  0.385033   0.29296
-0.139791  0.422564  0.196661
-0.0314334  -0.349956   0.374661
-0.245207 -0.293054 -0.318401
0.556348 0.549931 0.926771
 -0.240472  0.0450576 -0.0563127
-0.401655  0.306356 -0.147108
 -0.426566 -0.0298654   0.152425
-0.106015  0.121003  0.223694
 0.215462 -0.146391  0.161962
-0.0972072   0.180456   0.312646
 0.085998  0.178522 -0.350619
 0.0267922  -0.360625 -0.0593417
0.000122782   -0.380624  -0.0131835
-0.0476885   0.417775  -0.310713
0.0533472   -0.3618  0.374658
 -1.18504 -0.147162 -0.237368
0.155213  0.24335 0.146836
-0.0201473  -0.403602 0.00942899
-0.352298  0.447243  0.123477
-0.0551813  -0.284989   -0.27526
-0.382109 -0.330489 -0.406296
 0.228642 -0.142497  0.204474
-0.134165  0.505016  0.180632
-0.481764 -0.382736  0.219731
-0.104931  0.325288  0.323948
 0.123665 0.0365658   1.02477
 0.185152  0.187147 -0.190085
-0.380634  0.055718  0.128011
 -0.192418 -0.0530848  -0.143702
-0.171817 0.0573892 0.0933538
-0.126145  0.339715 -0.262331
-0.0695501  -0.276579   0.285525
 -0.117261  -0.449342 0.00831234
-0.0272396  0.0911905   0.226232
   0.15638 -0.0151782   0.189427
-0.317747  0.411156  0.129908
-0.220105 -0.294391 -0.278178
-0.450482  0.432615  0.133361
-0.20317 -0.10335 0.185691
 -0.247437   -0.37971 -0.0492222
0.000275513    0.147428    0.317148
-0.0198759   0.301981  -0.378993
-0.0364727    0.14348  -0.389163
   0.09775 -0.0443869  0.0307834
-0.444613   0.31503 -0.146682
 0.0360701  0.0417709 -0.0773146
-0.520064  -0.34267  0.426407
-0.0924572   0.456446   0.253834
 -1.03693 -0.114708 -0.209175
0.0556791    0.5084 -0.387202
 -1.40251  0.300517 -0.171036
-0.114544  0.338856 -0.297769
 0.471121   1.17527 -0.795793
-0.0820416   0.109708   0.305808
 0.126522 -0.124084 -0.170592
-0.125698  0.197245 -0.252139
0.00502336  -0.166236   0.190262
-0.0661518  0.0816979  -0.192238
-0.111497 0.0731909 -0.132781
 0.0212925  0.0493587 -0.0707599
-0.114743 0.0595136  0.113447
-0.535996 -0.080471 -0.179419
-0.113021  0.373612  0.295489
0.116757 -0.45087 0.533648
-0.0671069   0.208051   0.347275
-0.426781  0.138575 -0.146879
   -0.53911 0.000258822  -0.0733215
-0.358684 0.0240174 0.0429966
-0.115109  0.489647  0.204886
-0.0968909   0.180028   -0.29489
-0.0863504  -0.433924   -0.51449
-0.0908789  0.0617048  -0.149268
  -0.23063 -0.0725837  -0.169752
-0.0947884  0.0556553   -0.13665
-0.223621 -0.347101 -0.390641
-0.200189 0.0105144  0.125984
-0.0381842   0.154438   0.333885
 -0.302148  0.0333027 -0.0553168
 0.144144 -0.102748  0.071086
-0.0339125   0.111781  -0.475577
 -0.283865  0.0715918 -0.0979972
-0.124842 -0.278132 -0.261609
0.0444692  0.159081  0.333586
 -0.21215    0.0504 0.0963453
-0.131407  0.489719  0.185557
-0.188208 -0.124137  0.190396
-0.209644 -0.327729  0.377532
 -0.152898 -0.0186117  -0.176926
-0.425788  0.167729  0.169118
-0.305264  0.130553   0.14572
 -0.12422  0.183673 -0.250502
 -0.255571   0.043222 -0.0146055
-0.0676029    0.19569   0.342483
-0.102931  0.402924 -0.264306
 0.816194 -0.614753 -0.118968
0.0629638 -0.347092   0.14564
0.0505321 -0.423279 -0.473672
  -0.187172   0.0602758 -0.00945616
-0.233802 0.0477383 0.0429811
-0.177013 -0.259332 -0.273964
-0.0981037   0.192019  -0.300296
-0.393118 0.0808691 -0.124132
-0.215974 0.0487029 0.0909709
-0.158572 -0.129144  0.181608
 -0.632695 -0.0116723   0.134737
  -0.161229 -0.00341613   -0.129866
 0.0132948  0.0513029 -0.0745089
  -0.215591 -0.00620416    0.135754
 -0.59229  0.261436 -0.158223
   0.10007  -0.408722 -0.0430921
-0.0753734   0.236583   0.349388
-0.281683 -0.402197 0.0412921
-0.347396  0.094117  0.139904
   0.14429   0.141384 -0.0432199
-0.0828043   0.100695   0.255309
0.0826329   -0.3513  0.346679
-0.115672 -0.401217 -0.460113
   -0.549584 -0.000224452    0.0600392
-0.032759  0.621969  0.283934
 0.0249323 -0.0728564  -0.122584
-0.0741934   0.289876  -0.336962
  0.14903  0.150038 0.0578025
  -0.20737  0.0927771 -0.0965374
-0.0816879   0.113342   0.296053
0.0244122 -0.360978 0.0751559
  0.102356 -0.0208101   0.134237
-0.0825295   0.295486  -0.329779
-0.134621 -0.282031 -0.254799
 0.0964072 -0.0397462  -0.035076
0.0301538 0.0778344 -0.189722
 -0.304458  -0.474513 0.00852016
-0.433913  0.395096 -0.126039
  -0.379946 -0.00585269   -0.114124
 -0.803085 -0.0771674  -0.175249
-0.0955925   0.197593  -0.304486
0.0510125  0.596669 -0.365553
 0.357642 0.0263105 -0.328122
-0.414238 -0.384043  0.524864
-0.400115  0.162804  0.166904
 0.0587971  0.0347297 -0.0754183
-0.104872  0.302424 -0.309559
-0.347268  0.363419   0.14668
0.0759937 0.0264738  0.134697
-0.491824 -0.116538  0.229886
 0.612546  0.824642 -0.942204
-0.117286 0.0364065  0.328655
0.0544286  0.101956  0.248466
-0.191122 0.0577068 0.0407975
 -0.156968 0.00168792  -0.128163
  -1.39805 -0.0899693  -0.169437
0.0289595 0.0774147  0.206308
-0.270196 -0.101726 -0.196229
0.881301 0.572142  1.31075
-0.0822925   0.116254  -0.253824
-0.125343  0.229604  0.287469
-0.126395 0.0705041  0.135211
 -1.08622 -0.240319 -0.332595
0.0227098 -0.230202  0.237579
-0.094827  0.316082 -0.316644
0.0543232 -0.409764  0.023772
-0.474635 -0.374737 -0.228595
-0.384932 -0.166962  -0.27122
 0.155644  0.121466 -0.140908
-0.657967  0.153177  0.178328
 -0.784038 -0.0345555   0.153401
 -0.627601 -0.0267278   0.149377
-0.119799   0.15155  0.237611
-0.0299273  0.0837224  -0.193782
-0.102804  0.232869 -0.308899
-0.226278 0.0490243 -0.034326
-0.10687 0.285324 -0.30714
 0.133624 0.0830178  0.160573
-0.55894 0.235549  0.17703
 0.267659 -0.420922  -0.18045
0.728902 0.567507 -1.10097
0.0875022 -0.355294  0.159535
 0.0766104  0.0148491 -0.0826616
-0.0784047   0.195528  -0.317042
-0.0986314   0.188379   0.315586
-0.111201 0.0519362 -0.229153
-0.00786166   0.0899417    0.223024
 -0.105739  -0.390535 0.00848367
-0.126432 0.0234643  0.163829
0.0946163 0.0621421 0.0982805
 -1.45944 -0.144666 -0.223719
 0.148196  0.149506 0.0621839
0.0605889 0.0501556 -0.151082
  0.189265 -0.0902961  -0.176139
-0.611634   1.43275 0.0280675
  0.134289  -0.454563 0.00831011
  0.204354  -0.167149 -0.0188813
 0.150007 -0.101112 -0.165243
-0.117836  0.238539  0.302497
 0.0389758  0.0390187 -0.0931957
-0.450701  0.332214  0.161356
-0.441569 0.0656149  0.142816
-0.170904 -0.290858 -0.210911
-0.52712 0.124756 0.169412
-0.502772  0.441807  0.132947
-0.0965207   0.176571  -0.293748
-0.0896305  0.0609003   0.119741
 -0.127145  -0.382136 0.00329308
 -0.19247  -0.05392 -0.341329
 0.191915 0.0695477  0.246116
  0.192185 -0.0605135  -0.183712
-0.116617  0.346855 -0.294484
 0.245653 -0.434489 -0.442355
-0.0349758  -0.307291   0.316389
-0.251896  0.438831 -0.102747
0.0650841 0.0298717  0.126592
-0.199048  0.077133  0.106758
 -0.140973 0.00336597  -0.155401
-0.056935    0.2756 -0.350802
-0.264116  0.115881 -0.110981
-0.0122013  -0.182062  -0.185861
-0.0588453    0.29674  -0.348866
 -0.548297 -0.0336874   -0.13876
-0.125288 0.0217269 -0.216428
 -0.25977  0.511392 -0.098522
-1.06936 0.293345 0.182472
-0.082696   0.33139 -0.321641
0.010267 0.194648 0.394613
-0.102701  0.301768  0.329637
 -0.490181 -0.0478059     0.1683
-0.490842 0.0496414  0.143409
 -0.989138 -0.0499395   0.128151
-0.117422  0.164514  -0.24374
-0.116023  0.167653  0.267259
  0.168306 -0.0759302  -0.163888
 -0.285849 -0.0664583   0.179858
 0.0342584  0.0484455 -0.0493398
0.0924166 -0.373148  0.125003
-0.417577 0.0995371 -0.135192
  -0.32021  -0.435392 0.00901534
-0.332168 -0.118153 -0.213143
-0.116992  0.161004  0.259715
-0.0784977   0.139607   0.303116
-0.101507  0.313687  0.329328
  0.126744 -0.0736937 -0.0725254
  0.193522 -0.0695982    1.50734
-0.098759  0.313239 -0.314049
0.0633352 0.0421264 -0.138508
0.0385579 -0.198163 -0.197764
 0.103487   -0.3813 -0.376016
-0.105352  0.179018  0.297483
-0.41506 0.414338 0.136241
 -1.08571 -0.189567  0.298001
 -0.29987 0.0342256 0.0142605
-0.109347  0.270195  0.320865
-0.120842  0.217168  0.289257
 -0.228143 -0.0830824  -0.352899
-0.0881884   0.211132  -0.315495
 -1.18627 -0.497263  0.308998
 0.58454 0.748172 0.938995
0.0897676  0.138145  0.303068
-0.0915694  0.0670082  -0.182184
-0.0757435  -0.397871  -0.446636
 -0.10026  0.204746 -0.303849
-0.279807 0.0379821 0.0544025
 0.0598599  0.0332558 -0.0958068
-0.169177 -0.298484 -0.310878
-0.125961  0.204811  0.272119
-0.390156  0.413061 -0.116745
 0.180574 -0.094534  0.186195
-0.119267  0.223168  0.295929
  0.12895  0.116462 0.0101417
0.150289 0.142251 0.107845
0.358548 -0.29109 0.043671
-0.099428 0.0786645 -0.249237
-0.0987642   0.195764   0.318877
 0.115784 0.0519182 -0.170599
-0.105153  0.336826 -0.302127
0.0685336 -0.389447 0.0668083
 -0.297399  0.0304808 -0.0835076
-0.536415  0.149208   0.17367
 -0.161462 -0.0117942  -0.143239
0.0980052  0.650148 -0.411186
-0.0918566   0.134641  -0.260384
 -0.212945 -0.0636773  -0.158764
 -1.17638 -0.166842  -0.25613
0.197289 0.134468 0.248895
 -0.256238 -0.0561386  -0.153752
-0.179357 -0.110674  0.174756
 0.199855 -0.404683  0.166465
 -0.774964 -0.0258422 0.00520418
-0.0855439  0.0592901   0.128707
-0.105927  0.306065  0.325633
-0.114716   0.27021   0.31062
  -0.39698  -0.403834 -0.0813483
0.0234304  0.151077 -0.303941
-0.147762 -0.279974 -0.282711
   0.1604 -0.171637 -0.196687
 -1.39184  0.358324 -0.165374
   1.05397  -0.785641 -0.0161052
-0.225723 0.0837188  0.112061
-0.0837762   0.151286   0.307126
-0.301141  0.143441 -0.131841
 0.114831 -0.324003  0.283752
-0.101628  0.409163    0.2782
-0.113534  0.136361  0.231277
-0.119997  0.181614  0.272119
-0.066199  0.398564  0.320565
 0.0930591 -0.0346307  0.0423456
 -0.14819 -0.353496 -0.386796
-0.0905871  -0.389353  -0.250591
  0.208775 -0.0967793  -0.187326
  0.102009 -0.0397729   0.150351
-0.354752  0.102578 -0.126257
-0.00402529   -0.283971   -0.239914
-1.39497   0.1397 0.199687
 0.114548 -0.441962 0.0116266
-0.412165 0.0851112  0.146798
  -1.37763   0.948639 -0.0138403
-0.100066  0.332776  0.325735
 0.165585 -0.418881 -0.431899
 0.335336 -0.406138  -0.30375
 0.179207 -0.119129 -0.118015
  -0.021295   -0.376362 -0.00978144
-0.0424811  0.0916568  -0.209377
-0.124931 0.0286078  0.387736
 0.0209255  0.0449495 -0.0907689
-0.108582  0.372508  0.297407
-0.290948  0.445891 -0.102339
 -0.248167 -0.0797781   0.191262
  -0.575429 -0.00331552  -0.0243218
 -0.221699 -0.0512685   0.168533
-0.0981553   0.248607   0.332907
-0.0663955   0.269554   0.360863
-0.109619  0.352088  0.307091
-0.103366 0.0645081 -0.226432
 0.136562  0.211219 -0.414447
-0.300118  0.134399  0.148242
     0.1325  -0.0960935 -0.00886597
-0.384988 -0.198043  0.328891
 0.156935  0.104179 -0.166625
-0.117385  0.339266  0.314461
-0.0988754   0.304886  -0.315243
-0.101531 -0.294947 -0.296703
-0.187228 -0.308137 -0.164854
-0.0103588  -0.201897   0.218829
  -1.3818  0.518201 -0.133241
-0.747919 -0.347136 -0.476038
 -0.181016   -0.39726 0.00880291
 -1.45409 -0.136323  0.231129
   0.18164 -0.0379133   -0.18232
 0.258708 0.0254475 -0.029884
-0.0934114  0.0844801   -0.30303
-0.451618   0.29962  0.167701
  -1.14797 -0.0792152  -0.167533
-0.0801265   0.141358   0.303082
-0.319564  0.442601  0.122117
 0.125826 -0.337812  0.251364
-0.108241 -0.387379  0.450125
  0.107247 -0.0533577 -0.0519133
 0.102941  0.573559 -0.426321
-0.0899192   0.306906   0.340335
0.179722 0.246229 0.194556
-0.0956992   0.300037   0.335879
 0.178649 -0.143504 0.0494365
-0.0965778   0.179413    0.31223
-0.141127  0.071391  0.123666
 0.195073 -0.017869  0.213135
-0.119987  0.240587  0.298366
  -1.2965 -0.122836 -0.208734
-0.305876 0.0119792 -0.099995
-0.100401   0.20311  0.320833
 0.0297869  0.0519921 -0.0505636
-0.171107 -0.157399 -0.188641
0.0730141 -0.229847   0.23649
-0.123252  0.198279  0.276113
 0.219361 -0.484436 -0.564974
 0.224859  0.740432 -0.540419
  -0.1072 0.0578499  0.131433
 -0.409877 0.00592636   0.121411
-0.101398   0.16947  0.297153
0.630053  1.40969 0.971046
 0.0977666  0.0665699 -0.0765831
-0.00178933   -0.370912  -0.0244322
0.0268045 -0.168127  0.193325
-0.248582 -0.391911 0.0433796
 -0.141379  0.0592635 -0.0909277
-0.0970338   0.241705   0.332921
0.00540207  -0.201642  -0.200579
0.618541 0.249603  1.44884
-0.117128  0.360553 -0.286754
-0.0744016   0.446103  -0.266342
0.143294 0.232721 0.122115
 0.048584 -0.361245  0.099359
   0.148055   -0.113497 -0.00984273
-0.101952  0.206147 -0.301798
-0.517067 0.0252665  0.135524
-0.126597  0.285131 -0.270703
 -0.168971 -0.0431285   0.252281
0.154137 0.160364  0.11991
 -0.163321 -0.0288376   0.192076
 0.681838 -0.547294 -0.275307
  0.149655  -0.109535 -0.0484656
-0.199592 0.0462883  0.100959
 0.200255  0.117358 -0.249264
  0.154003 -0.0131325  -0.171029
 0.105263 0.0464211 -0.141913
  -1.29713 -0.0816498 -0.0699877
 -0.223696  0.0376742 -0.0849601
  0.143822   0.182942 -0.0966023
-0.0812336  -0.274852  -0.267512
 0.215877 -0.141053 -0.159439
-0.162734 0.0664125  0.112175
 0.124454 -0.436012 -0.485254
 0.108812 -0.391959  0.414726
 -0.680153 -0.0089429  -0.125401
0.0458197 -0.285564  0.271341
-0.0421573   0.174603  -0.334242
-0.123235 0.0280861  0.252678
0.159568 0.368022 0.120552
-0.0786831   0.453866   0.273059
0.0956857  0.618118 -0.412063
  0.145908   0.153802 -0.0201227
-0.129546 0.0224642  0.152909
-0.0926962   0.304295  -0.320637
-0.116587  0.371452 -0.279173
-0.446028  0.124251  0.162623
-0.112807  0.195231 -0.277719
-0.100652 0.0539043 -0.167589
-0.0326375    0.20485   0.372244
0.0139584 -0.170176 -0.175907
  0.15833 -0.424587  0.465173
-0.214389 -0.364551 0.0773726
-0.175883 -0.303527  0.194028
 -0.221435 -0.0669916   0.181534
-0.500761 -0.362109  0.319619
-0.0617356   0.617983   0.254768
-0.0644535  -0.446978  -0.294214
-0.155246 -0.287281  -0.22654
 -0.16123 0.0593166 -0.073534
 -0.238382 -0.0852603  -0.188796
 -0.041854  -0.471016 0.00867172
-0.123601  0.278779 -0.276032
   0.210305 -0.00667593    0.225399
-0.273095 -0.165686  0.259543
   0.15619  -0.111272 -0.0667282
 0.0023374  -0.445245 0.00867316
-0.286295 -0.381939 0.0848394
-0.161562 -0.163908  0.208859
-0.140499 -0.430804 -0.519039
-0.328619  0.156526  0.156975
-0.0882938   0.159163  -0.290507
-0.0887808   0.322602   0.337614
 0.182165  0.155746 -0.186787
0.0639515 -0.255498  0.251938
 0.118175 0.0693145   -0.1297
-0.0955482   0.174586   0.311149
-0.408555 0.0627682  -0.11874
-0.284671  0.122605 -0.119328
 -0.491247 0.00719795  0.0103806
-0.208985 -0.371375 0.0606236
 0.169087 -0.135737 0.0372336
-0.117408  0.356886 -0.288395
-0.415278  0.165324 -0.150494
-0.0664217  -0.380974   0.432326
 0.105488  0.474482 -0.451776
 0.225273 -0.390949  0.231198
-0.0923425   0.160168  -0.285866
 -1.42257 -0.370532  0.481632
-0.128924  0.392013 -0.225529
  0.374208  0.0231313 -0.0520465
-0.257959 0.0413492  0.072611
-0.123737  0.233782  0.289474
 -0.298305  -0.372268 -0.0987337
-0.435868 0.0801912 -0.130329
-0.440142  0.241721  0.174075
0.0394136  0.519692 -0.367135
 0.198742 -0.409412  0.417887
 -0.288008 -0.0495061  -0.148159
-0.105759  0.319794 -0.306307
-0.12108 0.192381 0.277255
  0.156138 -0.0776674   0.174909
-0.106138  0.299256 -0.307631
-0.603792  0.254034  0.176864
 0.113034  0.703939 -0.424268
-0.0697782   0.172011  -0.311958
-0.461527  0.415842  0.138992
-0.123591  0.205957 -0.261156
-0.101355 0.0957991 -0.172721
-0.123326  0.190214  0.273394
-0.129385  0.401065  0.233838
 0.222401  0.264688 -0.526097
-0.107088  0.257251 -0.306423
-0.117653  0.406113  0.253255
 0.0318706 -0.0286398   0.131637
 -0.333658  0.0275545 -0.0766702
-0.127887 0.0175154 -0.238458
0.0402287 -0.259684 -0.238099
 0.195593 0.0473676 -0.220934
-0.140526 -0.804039  -1.30926
 0.176667  0.234193 -0.172441
0.0311081  0.121683  0.277238
 0.109442 0.0895023 0.0561118
 -0.14319 0.0595351 0.0965638
 -0.50971 0.0846949  0.157947
-0.102932  0.256331  0.328979
-0.121405 -0.285105   0.24493
0.0126867  0.107328 -0.237254
-0.115396  0.120675  0.196619
-0.0998566   0.174326   -0.28613
-0.125024  0.251394  0.291668
0.764451 0.482389  1.18942
 0.063476 -0.193456 -0.195993
-0.117062  0.346842   0.31214
  0.160152 0.00733276  -0.181689
-0.127155  0.365234 -0.249694
 -0.361022 -0.0823743   0.195115
-0.113961 -0.296571  0.318429
 -0.358215  -0.406161 -0.0542528
-0.097324  0.229716  0.330833
-0.411264 0.0610485  0.136036
0.0843962 -0.227041   -0.2175
-0.0941917   0.495797   0.230413
 -1.12264 -0.253475  0.364042
 -0.187922 -0.0981865   0.178119
-0.0616216   0.458941  -0.274275
 -0.201835 -0.0426559   0.164252
  0.267075  -0.218126 0.00329937
-0.0819246   0.243589   0.345012
-0.0614075  -0.329107  -0.333073
0.141841 0.197716 0.115886
  0.145916 -0.0169244   0.181034
-0.384939 -0.332768  0.331876
 0.0485594  -0.376823 -0.0531514
-0.259784  0.106472  0.123975
 0.168294  0.255003 -0.500676
-0.0816982  -0.351927   0.387196
 -0.233547 -0.0410476    0.15874
 -1.56572 -0.412572 -0.504636
  0.18719  0.119896 -0.218405
0.0531762  0.196147  0.397789
-0.121567 0.0290617 -0.297498
   0.08281  0.0499763 -0.0664644
-0.107758  0.400328  0.277167
-0.0991605   0.189438  -0.298114
-0.0965015   0.143798  -0.263631
0.0387867 -0.364613 0.0832734
 -0.138992  -0.394176 0.00874657
0.0648201  0.420794  0.439955
  0.141072   0.126482 -0.0886454
-0.0849062   0.105975   0.281752
 0.159561  -0.36711 -0.200289
-0.119889 0.0362196 -0.372693
0.00187034    0.16956   0.352893
-0.123622 0.0269143 -0.229621
-0.0739109  -0.356103  -0.376721
-0.107233  0.158608 -0.257989
  0.352156  0.0278938 -0.0145384
-0.108304  0.340588 -0.297115
 0.306442 -0.427101 -0.203426
 0.181883 -0.121335  0.196745
-0.425855  -0.39636    0.1338
-0.428477 -0.335243  0.370205
 0.143688 -0.168774  0.211068
-0.105788  0.245606   0.32434
-0.107172  0.387504  0.288716
-0.107762  0.419409 -0.242127
  0.170118 -0.0713264  -0.166356
  -1.50421 -0.0496296    0.19983
 0.247294  0.109371 -0.295622
-0.0998503   0.204736   0.321974
0.0550413 -0.131066  0.175184
-0.0638852  -0.370591  -0.235822
-0.125927  0.269443 -0.271166
-0.105082 -0.416571 -0.485105
0.0612576  0.552686  0.400954
-0.462092  0.170458  0.171612
-0.296822 -0.373589  0.112363
-0.233083 -0.414813 0.0086148
-0.691437  0.237272  0.179413
 -0.178009 -0.0283832   0.166974
-0.501319  0.314501  0.165933
-0.109794  0.388628 -0.265883
-0.313254  0.121888 -0.126342
0.526509  1.14474 -0.84706
-0.0939366   0.152063    0.29354
-0.0933727   0.425506  -0.257773
  0.221389 -0.0984823  -0.195294
-0.103259   0.13705  0.258222
-0.0654151  -0.398401  -0.258053
-0.135559   0.37136  0.244399
  0.0917059 -0.00146772   -0.116194
-0.336153 0.0284453  0.011581
 -0.295765 -0.0970362   0.207023
-0.0319554  0.0850638  -0.196326
-0.260673 -0.115271  0.221735
-0.126657  0.243805  0.286617
-0.330554  0.398148  0.134147
0.00380737  -0.363772  -0.034395
 -0.179921  0.0430792 -0.0912979
   0.17623  -0.135262 -0.0605731
-0.102471   0.32128  0.326843
-0.135416 -0.299835 -0.308053
0.0613679 -0.253241 -0.232502
  0.17238  0.141465 -0.164223
-0.0510259   0.305677  -0.353985
-0.136153   0.40486 -0.198996
-0.119748 0.0361726 -0.251628
 -0.134231  -0.392838 0.00857385
-0.101019  0.218462 -0.307183
0.0668278 -0.337714  0.170455
-0.24252 -0.35983 0.107724
-0.104948  0.278028   0.32743
-0.102105  0.119643  0.234463
  0.10352  0.120561 -0.262373
-0.236729 -0.108555 -0.188131
 0.448297 -0.337517 -0.242641
0.0487462   0.14697  0.314394
-1.31308  0.94798 0.029154
 0.148603  0.166136 0.0945568
-0.403447  0.361198 -0.133738
-0.122814  0.180601  0.262534
-0.373011  0.224763 -0.152949
-0.0180663  0.0797661   0.203139
 0.187181 -0.377509 -0.343799
 -0.322063  -0.395609 -0.0577465
 -0.256116  0.0417891 -0.0657089
-0.111535  0.138127  0.241463
-0.100557 0.0761024 -0.275885
-0.0245662  -0.195611   0.214705
-0.0745115   0.405107   -0.29118
-0.110409  0.155719  0.266384
-0.176245 0.0641485  0.106714
 -0.119086  -0.403896 0.00882365
-0.105158  0.310685 -0.308479
 -0.390626  -0.418203 -0.0426096
-0.254503 -0.301342  0.348774
 0.0855958  0.0483119 -0.0832564
-0.0664934   0.314755  -0.339874
 -0.302588  -0.385384 -0.0687975
0.187333 0.191544 -0.38425
-0.668648  0.190192  -0.16345
-0.047216   -0.1719  0.196472
 -0.684017 -0.0219096  -0.125927
  -0.26323 -0.0268253  -0.130536
 0.166266  0.189923 -0.148861
 -0.151194  -0.407312 0.00877834
-0.279337 0.0265715  0.106383
 0.249029 -0.202905 0.0551328
0.0854316 -0.330873  0.214195
-0.0626062   0.291214  -0.346381
-0.352769 -0.326553 -0.304356
-0.293988 -0.355541 -0.141369
-0.0903569   0.171016   0.313439
 0.404151 -0.295549  0.270919
0.0481252 -0.303569  0.243139
 -0.220892  -0.400645 0.00270219
 -0.462814  0.0101441 -0.0740197
 -0.206598 -0.0245299   0.150583
  0.150551  -0.102204 -0.0772677
-0.115388   0.36833 -0.281401
 -1.43249 -0.259655  0.359717
  -0.140965 -0.00270442    0.325982
 -1.69943  0.254137 -0.181822
 0.143107  0.215626 -0.617937
-0.0207218   0.466773   -0.31711
-0.743506 -0.407641   1.16738
  0.0765663 -0.00155219    0.137209
0.322872 0.101713 -0.35594
  1.03677 -0.663685  0.733411
-0.104074  0.422774 -0.245151
-0.125859  0.412651 -0.214417
 0.148078  0.148831 0.0597848
-0.116251   0.13318  0.219987
-0.125393  0.205675  0.274562
-0.0885453   0.292621    0.34256
-0.407184   -0.2684  0.385498
-0.0925611   0.272054    0.33936
-0.464618  0.324111  0.163445
  0.07806 0.0336436 -0.100393
-0.492299  0.356609 -0.140488
-0.0962869   0.260823    0.33555
0.00415967   0.563103  -0.316236
-0.504394 0.0583997 -0.131274
-0.0764015  -0.384691   0.260322
 0.15964 0.186301 0.150345
-0.109031  0.365641 -0.284229
0.0197581 -0.383317 -0.021967
-0.391667  0.282431 -0.150864
  0.18279 -0.131293   0.11205
0.0307822 0.0385578 -0.109528
 0.0426323  -0.450453 0.00828353
-0.559743  0.153989 -0.157879
0.0689635  0.250672   0.46804
-0.855244 0.0798952  0.182925
 0.340448 -0.426046  -0.39275
-0.123241  0.161808  0.242897
-0.0135506  -0.189685   0.209628
0.596568  1.06087  -0.9126
-0.118917  0.323784  0.300244
-0.571711 -0.383734  0.290116
 -1.47858 -0.104681 -0.175196
-0.0344676  -0.424392 0.00820939
-0.392535  0.146441 -0.145067
  -0.142219 -0.00512083    0.309129
-0.381142  0.093696 -0.127755
  0.135066 -0.0553446   0.163608
  -0.1285  0.334089 -0.257958
 -0.161313 -0.0286597   0.324513
-0.123485  0.354166  0.308187
-0.277359 -0.411167 0.0179945
  0.117285 -0.0580622  0.0960223
 -0.677583 -0.0160381 -0.0517634
-0.137404   1.55494 -0.294805
 -1.21258 -0.124184   0.23139
-0.104211  0.173897 -0.293744
-0.707174  0.109702  0.178341
 -0.10684  0.328082 -0.303657
  0.10979 -0.338356  0.316673
 -0.125734  0.0591765 -0.0989444
-0.179658 0.0550048 -0.084266
-0.393172 0.0204833 0.0106774
-0.000252175    -0.360183   -0.0355282
-0.169097 0.0621874 0.0651442
-0.145328 -0.280462   0.30096
-0.265203 0.0417429 0.0138299
 0.056436 -0.299593 -0.261579
-0.200962 0.0251552  0.116494
-0.127819  0.275508  -0.26686
0.200744 0.197405 0.240719
-0.124096  0.221723 -0.267391
0.0668749 -0.352911 -0.337724
0.0849585   0.20031   0.40595
 0.0575263 -0.0226196   0.136186
-0.127495   0.41058  0.230733
-0.605248  0.164207 -0.160346
-0.100001  0.200553  0.319109
-0.0753509   0.446135   0.283229
 0.181838 0.0104917  0.214824
-0.120163  0.249723 -0.281859
-0.0275799  -0.461667 0.00845695
 -0.224292 -0.0738824  -0.167601
  0.169067 -0.0673692   0.184134
-0.0735731   0.418868  -0.284777
-0.125408 -0.387135  -0.43849
-0.0889306   0.125728   -0.25446
0.0411776 0.0500841 0.0391138
 0.157624 -0.124512 0.0324635
-0.241136 0.0708207   0.10737
-0.0884576   0.270976   0.342685
 0.41713  1.17799 -0.74341
-0.106744  0.327025 -0.303839
-0.116196  0.344692 -0.295255
-0.106253  0.324563  0.322403
 -0.145976 -0.0152528  -0.212144
   0.209755 -0.00362879     1.30626
 0.151539  -0.11948 0.0194184
0.0136001  -0.06826 -0.116434
 0.169073 -0.115838 -0.174965
 0.219449 0.0465734  -0.23622
-0.0934787   0.177802  -0.297088
 0.104717 0.0457717   0.17591
-0.0483643  0.0745889  -0.175387
-0.129684  0.361184  -0.24562
0.0433256 -0.325799 -0.303048
 0.151153 -0.138174  0.198608
-0.405239  0.306445 -0.147721
0.711176 0.918477 -0.98201
-0.0318575  -0.412781 0.00864767
-0.146083 -0.189151 -0.207807
-0.106939  0.310898  0.323137
-0.0472766   -0.36817  -0.389267
  0.199669  -0.162079 -0.0281568
-0.109299  0.364401 -0.284455
0.239746 0.132087 0.324717
-0.0812681   0.104416  -0.241418
 0.148713  0.150309 0.0539443
0.459556 0.287614  1.06832
-0.303209  0.111623 -0.120607
 -0.394675 -0.0642522  -0.163419
-0.154748 -0.383395  0.018434
-0.801321  0.180868 -0.166754
 -0.158916  -0.412504 0.00945364
   0.153  0.17535 0.129673
-0.368368  0.143789  0.159781
 -0.4847 0.209556 -0.15802
 -0.184571 -0.0449065   0.364661
 -1.33095   0.18733 -0.177728
  -0.166116 -0.00758727    0.148132
  0.144909   0.169139 -0.0769987
-0.165531 -0.123994  0.175755
-0.114136 0.0453015  0.313736
0.169826 0.018867 0.210173
-0.104468  0.276721 -0.310806
-0.360604 -0.100271  0.212245
-0.118438 -0.397193  0.279698
 0.391372 -0.302201  -0.18116
 0.206638 0.0796045  0.261994
 -0.878178 -0.0205268  -0.143012
-0.433458  0.174404 -0.152552
 -0.590163 -0.0049495  0.0320255
 0.238153 -0.414641  0.417649
-0.788569 -0.198588 -0.294728
-0.150777  -0.29047 -0.208116
-0.111347 0.0552754 -0.260567
  -0.17866 -0.0297936   0.156622
  0.106113 -0.0406166    0.10006
0.156814 0.217826  0.15109
 -0.195856 -0.0458566   -0.15561
-0.236117  0.100472 -0.100737
-0.0860602   0.129101  -0.263439
  -0.17204 -0.0176342  -0.135858
-0.297593  0.118571 -0.120918
-0.0814251   0.113179  -0.275192
 -0.746152 -0.0228424  0.0413678
  -0.12661  -0.384137 0.00562302
   0.476033 0.000913242    0.427095
-0.125299  0.195848 -0.251681
-0.0941385   0.453182  -0.235085
-0.098793   0.19888  0.320118
-0.302871 -0.139699  0.257009
0.0960258 -0.320025 -0.276539
-0.0314545  0.0657804   0.173408
-0.376515  0.136543 -0.140819
 0.0389749 -0.0687792  -0.126049
-0.116719 0.0431806  0.279822
-0.116384  0.153879  -0.23446
-0.291433  0.128452 -0.126078
0.0100723 -0.278082 -0.254405
-0.251511  0.457288  0.119935
-0.355942 0.0404475  0.115116
 -0.157332 -0.0191383   0.347511
-0.103885  0.253566  0.327554
-0.402635  0.128367  0.159324
-0.0801017   0.120959  -0.263527
-0.905351 -0.191842 -0.286818
-0.107177  0.387083   -0.2714
  -0.1269 0.0212571 -0.316893
-0.113828  0.238831  0.309281
 0.389058  0.347669 -0.784615
 0.279006 0.0566048 -0.285767
  -0.24056  -0.368561 -0.0660186
0.104127 0.202995 -0.39502
-0.174304 0.0607035 0.0625515
 -0.217618 -0.0812979   0.240306
0.0159425  0.138504 -0.285688
-0.114415  0.183967  0.286755
 0.106112  0.495215 -0.445093
-0.122823  0.349061   0.31049
-0.271613 -0.363661  0.119217
-0.447462  0.333361 -0.143205
  0.12851 0.0714091 -0.148571
  0.150843 -0.0844504  -0.115698
