-0.107685  0.378337 -0.277073
-0.0869134  0.0939667  -0.234828
0.137088 0.121451 0.101992
 0.0260896 -0.0742925  -0.123337
  0.131931 -0.0956625  0.0144065
-0.339636  0.235867  0.169074
0.0351572 0.0398809  0.108572
-0.126249 -0.146977  -0.16632
0.0245734  -0.20882  0.222556
-0.0880585  -0.435984 0.00836368
0.0356774 0.0462267 0.0762074
-0.0304965  -0.230731   0.243341
-0.431018   0.23796 -0.155898
-0.181927 0.0615139 0.0270209
 -0.178141  0.0609797 -0.0266486
 -0.183771  -0.381124 -0.0163511
-0.0104244   -0.24948  -0.236897
 0.0223452  0.0507725 -0.0654253
 -0.14023 -0.175389 -0.193301
0.166858 0.279279 0.165359
 -0.197477  -0.378339 -0.0249373
  0.289968 0.00532694  -0.262317
-0.0743894   0.291347   0.354398
-0.0987604  0.0807533   0.270506
-0.459938  0.480333 -0.101545
-0.303828  0.374047 -0.122084
-0.554081  0.190154 -0.159903
-0.124155  0.164208  0.246565
 0.151934 -0.105455  0.185986
 0.325745 0.0335123 0.0151791
-0.203775 -0.111061  0.190016
 -0.181091 -0.0493406  -0.309333
 0.145209 -0.381239 -0.146988
-0.0442171  0.0912083   -0.20855
0.0474537 0.0509395  0.164478
-0.0455852  -0.437409 0.00888421
-0.0791493  0.0695159   -0.16511
-0.0929972    0.40499  -0.273806
 0.131564 -0.243043 -0.228827
0.0179675  0.103247  0.248382
-0.00488121   0.0518851  -0.0968698
0.0176865 0.0452545  0.114511
 0.0366495 -0.0427672   -0.11632
-0.00832704   -0.375328   -0.017361
  0.129251   0.117699 -0.0396056
-0.0800613   0.228627  -0.326749
0.0791735 0.0716426  0.845232
0.0283374 -0.139625  0.175134
  0.232768  -0.187609 -0.0568598
-0.103165 0.0601607 -0.209505
-0.0459081    0.70208   0.272777
0.0157725 0.0237033 -0.113134
 -0.12484  0.346348 -0.290975
 0.0100786  0.0575664 -0.0605691
-0.0655892    0.28418  -0.344062
-0.642832 -0.604218   1.03217
  0.153333   0.150423 0.00751749
-0.0479046  -0.201415   0.222311
 -0.158822  0.0745848 -0.0980007
-0.0725207   0.128679   0.302011
 -1.43873 -0.108214  0.199806
0.0353623 -0.393687 0.0357004
-0.0860259   0.122219   0.271886
-0.110406  0.218434 -0.293097
-0.0938534  -0.192805  -0.201746
 -0.183942  -0.345565 -0.0790533
-0.0926627  0.0564867   0.154587
  0.15439 -0.141542 -0.182952
-0.216923 -0.121135 -0.184107
-0.0840718  0.0892082    -0.2148
-0.108237  0.310144  0.321469
-0.061044 -0.246136  0.259393
-0.302373 -0.401036 -0.502368
 0.0530578 -0.0692382  -0.129641
  -0.450965 -0.00708292   -0.115915
 0.193125  0.126996 -0.225628
-0.0134677   0.125971  -0.268345
  0.137251  -0.424629 -0.0465167
0.0601776 0.0304343 -0.112894
 -1.07827  -0.17349 -0.265004
-0.105801  0.426127  0.256691
-0.355033 -0.182632  0.329213
-0.330419  0.260604  0.168688
-0.0575116  0.0589448   0.119642
-0.0141295   0.100688   -0.22429
-0.407392 -0.129061  0.241711
-0.446313  0.266328   0.17192
0.145335  0.10216  0.25869
  0.126839 -0.0431444   0.157037
 -1.21713 0.0530443  0.511977
 0.518503  0.402396 -0.859746
-0.0799784  0.0565093   0.154487
 -0.265375   0.039564 -0.0644464
-0.0190823   0.104628     0.2498
-0.328852 -0.384701  0.107397
-0.839929 -0.239034  0.354638
 0.261117 0.0225786 0.0573527
-0.316678  0.379536 -0.120745
-0.0027384  0.0513264   0.148452
 0.104838 0.0830873 0.0241917
0.0130837 0.0790229  0.205771
-0.238854  0.472275 -0.103387
-0.281736 -0.164484  0.262746
 0.155335  0.133936 -0.124238
-0.363526  0.199765  0.169057
 -0.11735 0.0380834 -0.318215
-0.0940481   0.388396    0.30066
  -0.143413 -0.00861331   -0.279683
-0.427134  0.219929 -0.155722
-0.0834638   0.312244  -0.326931
-0.0638883  0.0579006   0.127145
 -0.768334 -0.0257295  0.0963509
  -1.00671 -0.0992285   0.405477
-0.101155  0.130015  0.255119
-0.0692527   0.103318   0.252949
0.255386 0.109315 0.321308
   0.176176 -0.00603004    0.205557
   -1.1187 -0.0950589    0.37514
-0.036764  0.257977   0.38217
-0.132085  0.320951 -0.293728
0.0102908 -0.245256 -0.231233
 -0.175891  -0.439766 0.00882431
 -0.194786  -0.348325 -0.0798057
-0.0601214   0.241254  -0.344174
 0.320202 0.0327181  0.320307
-0.527266  0.211323  0.176365
-0.0638966  -0.171537   0.197406
-0.0982978   0.179467  -0.292262
-0.0964108  0.0707959  -0.210589
 -0.279606 -0.0898185   -0.18444
0.110298 0.394531 0.492522
-0.326991   0.31318  0.159062
 0.028323  0.418269 -0.388083
  0.256133 0.00194961   0.218697
  0.159892   0.388715 -0.0843899
-0.178626 0.0596739 0.0658057
 0.133435  0.118403 0.0947513
    -0.13745 -0.000595179    -0.228468
0.176388  -0.1188 0.194895
-1.23517 0.494424 0.150956
0.0211073 0.0230614  0.130484
-0.127409  0.348114 -0.258301
-0.239373   0.44973  0.122518
  0.115214  0.0955408 -0.0543277
-0.366107   0.30179 -0.146067
0.00688077   -0.37594  -0.024555
0.0357666 -0.376972  0.061018
 0.0144436 -0.0242645   0.126716
-0.279519 -0.288136   0.34505
 0.234492 0.0809209 -0.266605
 0.0218158  0.0524205 -0.0601544
-0.00523645    0.412252   -0.356404
-0.136178  0.359273  0.249458
-0.282437  0.447132  0.120226
-0.607874 -0.349811  0.477095
-0.357198 -0.274958 -0.350449
  0.151983   0.153169 -0.0875148
 -0.10129 0.0696306 -0.295926
 0.108672 -0.412413 0.0618617
  -0.1114  0.395853 -0.257858
-0.490801   0.19091   0.17515
0.0261957 0.0517435  0.158436
-0.173041 -0.386613 0.0202374
 -0.22597  0.496711 -0.106378
  0.299578  -0.244733 -0.0153512
-0.0979863  -0.366797   0.024441
-0.138518  0.400354  0.216797
 0.212927 -0.387459  -0.35345
-0.0758819   0.123799  -0.277035
-0.141932 0.0605938 -0.102212
 -0.59078 0.0530248 -0.138334
-0.158873   0.06095 0.0885339
  0.169572 -0.0799376   0.181852
 0.19771 -0.08685 0.199508
0.764246 -0.77432  1.09011
 0.0123976 -0.0553547  -0.113583
-0.0529169    0.06913   0.180161
 0.187201 0.0598327  0.238363
-0.0946165   0.162757   0.303067
-0.419018  0.464223  0.122398
0.349397 0.124514  1.21234
-0.172251 -0.273108 -0.282486
-0.112488 0.0539207  0.277814
-0.111766  0.289784 -0.300156
0.00988989 -0.0460638   0.127131
-0.200184  -0.14883  0.212113
-0.0811416   0.269097   0.348743
-0.130938  0.319373 -0.260467
-0.295337   0.12422  0.141292
-0.0251202  0.0628444  -0.151193
-0.273625 -0.338637   -0.3912
-0.142362  0.410003  0.199319
-0.129557 -0.331539   0.36702
 0.134255 -0.137948  -0.17773
-0.673688  0.975492 0.0262416
 0.170413 -0.439289 -0.475824
-0.0883855   0.235031    0.33908
 -0.12167  0.165132 -0.235034
 0.0437179   0.049736 0.00124597
-0.116958 0.0417808   0.25886
-0.0335673  0.0553045   0.125895
-0.401866 -0.360324 -0.222466
-0.0677671   0.255521   0.358383
-0.191186 -0.301204  0.214453
0.102236 0.292243 0.500116
-0.123396  0.321045   0.29203
-0.101822  0.113366 -0.207937
 -0.19869 -0.377353 0.0447054
 -0.119014   -1.00618 0.00872098
-0.356341  0.313859  0.160769
-0.133056  0.386941   0.23847
 -0.148376  -0.359507 -0.0296654
-0.103355  0.552218 -0.193928
 -0.12914  0.182111 -0.234062
 0.124861  0.111653 0.0203281
0.250899 0.758894 0.583979
0.151387 0.151044 0.100863
0.0683153 0.0305123 0.0634685
 0.736689 -0.550428  0.304976
-0.937139   1.01302 0.0112136
0.0468325 0.0345341  0.129002
-0.0892788   0.171065  -0.296765
   -1.1466 -0.0455133   0.429569
-0.130936 0.0614969 -0.108699
-0.516047 -0.146137 -0.243489
 -0.25984 -0.324272  0.221336
-0.0192115   0.452254  -0.324931
 0.36326 0.373824 0.743991
-0.576866   1.16222  0.032065
0.0646478 0.0362428 0.0556718
-0.00175095     0.50641   -0.324279
0.0489238 -0.256233  0.253595
 0.0959486 -0.0359809   0.058349
-0.121805 0.0237628  0.205335
 0.0557977  0.0414688 -0.0166302
-0.413735  0.349568  -0.13798
0.166817 0.205186 -0.14981
0.00423919   0.244577    0.41279
 -0.118967   -1.68629 0.00932518
   0.143822    0.140593 -0.00640942
-0.148266 0.0624287 0.0818784
 0.252082  0.149208 -0.332944
-0.0300022  0.0531574  -0.110931
-0.123083  0.252745  0.294236
 0.229981  0.262642 -0.274416
  0.150606   0.149529 -0.0776612
-0.208682 -0.192376 -0.231994
-0.668339   1.12917 0.0157546
-0.111685    0.4277  0.245231
-0.104435  0.274918 -0.310823
-0.113871  0.241699 -0.293205
 0.399947  0.603988 -0.392598
-0.115673 0.0397492  0.221009
  0.125089   0.114162 -0.0235481
   0.14327   0.137212 -0.0674205
0.00449853  -0.280371   0.274434
-0.0895543  0.0983526   0.298971
 0.0918558 -0.0741095   0.158703
-0.322457  0.346925  -0.13262
-0.138602 -0.304584  0.331947
 -1.29982 -0.127185  0.230361
-0.0588063   0.595176   -0.23918
 0.0951755  0.0692507 -0.0460648
 0.153626 -0.302954 -0.262243
 0.0286266  0.0476055 -0.0665954
 0.183304 0.0311012  0.223769
-0.431526 0.0948061    0.1521
   0.15429   0.150491 0.00584506
0.0518654 0.0426191 0.0323112
  0.115269 -0.0939432   0.173492
-0.0488022  -0.332087   0.342949
 -0.37969 -0.563033 -0.850909
-0.127329 0.0739484 -0.116661
-0.316393  0.333132 -0.136827
 -0.430969   0.654823 -0.0662553
0.0266064  0.328437 -0.413311
-0.129617  0.189041 -0.301165
-0.0328041  0.0210449  -0.112761
-0.09518 0.122797 0.255219
-0.470931  0.206277  0.175082
0.0470831  0.117128 -0.252813
0.614124 0.183178 0.712783
  0.17265  -0.14039 0.0210619
   0.16944   -0.12173 -0.0823444
-0.0800101  -0.385581  -0.425824
-0.0957308   0.144285  -0.265504
-0.462146 0.0978564  0.157102
 0.234623 -0.171664  0.146705
  0.129356 -0.0869896  0.0579166
-0.108256   0.33465 -0.300844
-0.00557774  0.00306533   -0.107398
 -0.619653 -0.0645789  -0.166296
-0.092375  0.469817 -0.227868
-0.258721   0.46691 -0.101691
-0.156125 -0.153299  0.197331
-0.380678 0.0211609  0.068961
0.000700676    0.134097    0.297552
-0.00861984    0.267649   -0.388559
0.00256307  0.0779468  -0.184943
 -0.18391 -0.365306 0.0592206
-0.104491 0.0692891  0.272931
 0.0373618  0.0517085 -0.0333144
 0.052991  0.548806 -0.375339
0.0359975 -0.380038 -0.039831
 0.0557611 -0.0560246  -0.125972
-0.432589 -0.102413  0.215642
-0.337578  0.300648   0.16275
-0.123295 0.0592872  0.120108
-0.233283  0.534266 -0.104773
-0.130089 -0.187894  0.220963
-0.072467  0.246813 -0.335611
0.132576 0.103294 0.125256
-0.113167  0.333936 -0.289611
 0.118317  0.121953 -0.769666
 0.113511 0.0829088  0.106719
-0.138591 -0.230819   0.25955
 0.366713 -0.273745 -0.216424
 -0.34388  0.457226 -0.103245
-0.699945 -0.138399  0.840917
 0.084369 -0.040403 -0.128622
  0.11425 0.0964599 0.0279552
-0.515354 -0.232529 -0.346387
0.0602812 0.0303529 -0.113309
-0.634631 0.0846571  0.168965
 0.118292 -0.344448 -0.207943
-0.251884 0.0997494 -0.102698
-0.0702192   0.540348  -0.232454
-0.137275  0.459165 -0.166229
-0.138565  0.380216  0.232784
  -0.178041 -0.00118837    0.139016
-0.0774186  0.0279078   0.137704
-0.0641876   0.094071   0.234669
-0.112344   0.37759  0.288319
-0.165706 -0.127111 -0.163294
  0.177234 -0.0574122  -0.174485
 0.0793406 0.00516038 -0.0713974
  0.110227 -0.0491774  0.0925076
  -1.61145 -0.0909271   0.200339
 -0.308623 -0.0503814  -0.148709
-0.07719 -1.92206 0.171371
-0.00526058    -0.45269  0.00907554
 -1.27973 -0.268175  0.801691
-0.128679 0.0162763 -0.208004
0.571835 0.441142 0.911306
-0.731327 -0.391759  0.879381
-0.012466 0.0586692 -0.143797
-0.0689255   0.549283   0.251488
-0.102506  0.214547 -0.305766
-0.139764   0.38995  0.226396
-0.0468698  -0.277749  -0.252288
-0.188529 -0.103255 -0.160148
-0.0640838   0.151678   0.322599
-0.085436  0.587576   0.23074
-0.118144  0.128547  0.211018
  -0.141177 -0.00733118    0.280445
-0.540307 -0.103921  0.218989
 0.117835 -0.428731 0.0391337
 0.363823  0.795533 -0.662043
-0.114703  0.250571  0.310415
-0.0529724   0.472093   0.295384
 0.604722  0.926871 -0.386638
 0.0968302 -0.0706196  -0.141125
0.179281 0.161768 -0.17774
-0.212031 -0.347471 -0.092616
  0.106934  -0.389777 -0.0869959
  -0.160056   -0.382929 -0.00305016
-0.736897 -0.366329 -0.487963
-0.132336  0.425476 -0.190453
0.0188804 0.0423544 -0.120774
-0.0520241  0.0531348   0.145595
-0.104034  0.166524  0.309287
 0.134411 -0.197159 -0.206013
0.275806 0.165825 0.386252
 -0.503248   0.913033 -0.0349465
0.0401148  0.104897 -0.234768
-0.135209   0.37952 -0.221981
-0.0670992  -0.374408  0.0173478
-0.0943598  0.0409832  -0.125992
-0.0963851   0.214315  -0.309813
 -0.749825 -0.0375514  -0.138963
0.00712238   0.113881   0.265388
  0.203171  -0.154521 -0.0902207
-0.119144  0.177151    0.3148
   -0.269598 -5.73849e-05     0.128001
-0.529241  0.419245  0.142142
-0.087549  0.288027  0.343637
-0.0631606   0.141303  -0.299533
  0.102215  0.0652228 -0.0956101
  -1.14842   0.737309 -0.0582411
 -0.021215      -1.54 0.00884513
 0.0470113  -0.367361 -0.0698047
-0.378448  0.175074 -0.149108
0.000812844    0.253661    0.411431
-0.275049 -0.369961  0.460267
 0.0694788 -0.0873353   0.159538
  0.051448 -0.0347146   0.136305
 0.222225 -0.016306  0.229555
-0.0759157   0.138668  -0.286757
  -0.594847 -0.00474823   -0.114812
-0.0638492  -0.451637 0.00892138
-0.0677667  0.0968992  -0.223061
0.0723017 0.0285044 -0.105002
 -0.171869  0.0904432 -0.0977485
  0.320051   0.671242 -0.0162516
-0.438011  0.246517   0.17363
-0.544389  0.969518 0.0422861
-0.0677935  0.0554575   0.150387
 0.18042 -0.16433 -0.19612
-0.328539  0.346946 -0.132766
0.202273 0.180537 0.385395
 -0.259092  0.0424243 -0.0389705
0.028884 0.548269 0.366488
-0.0695021  0.0518106  -0.128582
-0.0843932   0.151129   0.306107
  0.04457 -0.270116  0.261806
-0.0341257   0.257747  -0.366594
 -0.632591 -0.0102608 -0.0963304
0.0370453 -0.147435  0.180169
0.0260742  0.363574 -0.402795
-0.316029 -0.313509  0.338974
-0.277028 -0.120413 -0.224876
-0.313813 -0.326119 -0.260938
0.0102976 0.0440217  0.138904
 -0.11797  0.205654 -0.292787
  0.01457 -0.382354 0.0377954
-0.010171 -0.290527 -0.271072
  -0.22802  0.0992116 -0.0969323
-0.0183335  -0.377043 -0.0103181
 -0.244499  -0.364395 -0.0807253
  -0.140713 -0.00622012    0.282809
-0.220896 -0.396582  0.489663
-0.186737 0.0595171 -0.029034
  0.137345 -0.0256699  -0.154136
0.166146 0.228676  0.16968
-0.0983119  -0.278613   0.291578
-0.119589 0.0347558  0.305216
  0.15199  0.154482 0.0588575
-0.133158 0.0111561 -0.124132
0.0777584 0.0341877  0.111721
  0.0938152   0.0700664 -0.00155991
 0.0648471 -0.0770222    0.15371
 -0.534253 -0.0593452  -0.160678
-0.128197 0.0195248  0.246828
-0.0380454   0.171869   0.354498
 -1.26951  0.158415 -0.178591
0.0339612 -0.389232 -0.023116
0.000538942   -0.177974     0.19969
-0.344621  0.328046 -0.139463
0.0370839 -0.165088   0.19355
-0.0788714  0.0593248  -0.106926
0.0090392 -0.286158  0.269195
 -0.203391  0.0530942 -0.0535467
-0.111223   0.14738  -0.23781
-0.050657  0.303898 -0.354565
 -0.683822 -0.0157485 -0.0283421
7.56832e-05    0.223965    0.404843
-0.0183865  -0.926677   0.232666
 0.193777  0.419599 -0.125486
0.0326003 -0.282054 -0.253124
-0.381877  0.112074 -0.134935
-0.331125  0.213285  0.168062
0.310829  0.17462  1.03191
 0.328216 0.0229851 -0.092773
-0.197122 -0.326631 -0.129568
-0.0407428  -0.419548  -0.479718
-0.122642  0.415778 -0.218297
 0.288184 0.0746233 -0.305188
-0.349085  0.249338  0.170124
0.0597103 0.0396409 0.0351566
-0.132046  0.342915  0.267814
-0.568108  0.749559 0.0620359
-0.102164 -0.208831 -0.217176
-0.0545476  0.0596163  -0.140941
-0.156497 0.0189847 -0.116082
 -1.34934 0.0931495   0.12535
-0.0623526  -0.266273   0.275665
-0.0757615  0.0806484  -0.189459
-0.181425 -0.330829 -0.360509
-0.120189  0.198815  0.284042
 -0.208552 -0.0133311  -0.123142
-0.115929    0.3539  0.307983
-0.0999994  0.0374027  -0.519855
-0.322566  0.351496  0.149508
  0.147993   0.320647 -0.0972526
-0.181033 0.0124336  0.129238
 -0.12433  0.274768 -0.275939
  0.112311 -0.0595197  0.0720916
-0.102785  0.147337 -0.255351
-0.0521648  0.0179926  -0.113068
   1.00747 -0.0667074  -0.811763
-0.441972 -0.398084 -0.121756
-0.0786631   0.239448  -0.329549
-0.166334 -0.377397 0.0317673
-0.456769 -0.146361  0.260499
0.151402 0.156584 0.104671
0.138321  0.21572 0.111144
 0.211005  0.280528 -0.233527
-0.383227  0.215986  0.171278
-0.162496   0.48965  0.155238
-0.221933 0.0698873  0.104745
-0.356899  0.132522 -0.137581
 -0.122414  -0.420838 0.00839472
 0.154529  0.150555 -0.021204
-0.665902  -0.36103  0.470274
-0.00900626    0.572461   -0.299566
-0.26801 0.107555 0.127556
  -0.1923  0.059064 0.0174011
-0.0997911   0.275257   0.333045
 0.108162 0.0562338  0.191794
 0.25855  0.40202 -0.27942
-0.0444073   0.284815   0.378155
-0.0116486  0.0636959   0.172495
-0.163807 0.0369299  0.118742
-0.102271   0.21112  0.324331
0.0378435  0.416098  0.413887
 -0.171206   0.062868 -0.0327294
-0.336464  0.755003 0.0953486
 -0.136438 0.00892308   0.168881
-0.127309  0.506617 -0.169638
-0.102464  0.137015 -0.283671
-0.42799 0.447523 0.128001
-0.209608 0.0572342 0.0993543
  0.20853 -0.114978  0.201452
-0.119968  0.201127 -0.267795
-0.459123  0.717946 0.0731286
0.0904071 -0.031761  0.014774
 0.120495 0.0872686  0.120935
 0.0962716 -0.0418253  0.0148611
-0.115618  0.427193 -0.219594
-0.0750265  -0.179433  -0.188762
 -0.237308  0.0464838 -0.0313764
-0.11887 0.350207 -0.29244
 0.0715615  0.0404911 -0.0456034
-0.112351 0.0492777  0.244279
-0.340709  0.289386 -0.148717
-0.516522 0.0697491 -0.136435
-0.355445  0.186998 -0.148635
 -1.06938  0.298464 -0.164243
-0.108723  0.434148 -0.226157
-0.131867 0.0111294 -0.251788
-0.147056 0.0233069  -0.11741
-0.36984 0.243682 0.171085
 0.0995017 -0.0489265 0.00388257
-0.102086  0.111541  0.221294
-0.0782247  -0.307467  -0.307449
  0.296681   0.626061 -0.0521505
 0.277209 0.0759942 -0.297116
-0.141789   0.41656 -0.179528
  0.147128 -0.0687647   0.158066
-0.415108  0.016358 0.0923356
-0.0259337  0.0732905  -0.172398
  0.114763 -0.0648735  -0.144129
 0.164181  0.110004 -0.177028
 0.0747456 0.00514717  0.0347839
 0.167557  0.176125 -0.149619
-0.121598  0.165091  0.253876
  -0.65863 -0.0130593  0.0844184
0.0544331 -0.178086 -0.186677
 0.161014 -0.110873   0.10441
-0.121623 -0.201825 -0.212901
 -0.170411 -0.0144269   0.154178
-0.0955766   0.115407    0.24335
-0.102809  0.506261  0.216318
 0.484185  0.236112 -0.630754
0.0487512 0.0890218 -0.210352
 -0.0141551 -0.00617608     0.12241
 0.192102  0.147565 -0.311657
 -0.10194   0.24202 -0.311165
-0.333053  0.371939 -0.125714
  0.427493 -0.0010476   0.310637
-0.172369 -0.189516  -0.21653
-0.120115 0.0405328 -0.123807
-0.0220022  0.0424587   0.136962
-0.0981729    0.30954   0.332914
0.00380332  -0.399049 0.00809948
 0.166681  0.114303 -0.177493
-0.0911865   0.158601    0.30882
-0.492796  0.351827  0.158953
 0.055027 -0.318372  0.304504
-0.0866993  0.0821968  -0.187041
-0.309252  0.174902 -0.142259
-0.217855 -0.345449  0.122893
-0.437795  0.424638   -0.1171
-0.349069  0.190714  0.166518
-0.160469  0.479932  0.155929
0.0500304 -0.354439  0.116999
-0.0185355   0.280825  -0.380823
-0.0101715  -0.265061  -0.248302
  0.124889 -0.0298109  -0.142514
-0.245252    0.1102 -0.103961
-0.126845     0.164  -0.22367
-0.0189458   0.380612  -0.355485
-0.0572584  -0.462775  0.0093893
 -1.63007 -0.441266  0.198645
 0.498424  0.455627 -0.856453
-0.459917 -0.063359 -0.163146
-0.109282 -0.278799  0.273088
-0.182126 -0.037987  0.157082
-0.0368375    0.22522   0.375794
 -0.141295  0.0613122 -0.0733976
0.239013 0.152058 0.344804
-0.116224 0.0347381 -0.149235
-0.021296 -0.162374  0.187608
 -0.166809  0.0629088 -0.0345543
 -0.134271 0.00285407   0.264129
-0.0840567    0.10659  -0.258786
-0.331918  0.062464  -0.10326
-0.344437  0.104481  0.142904
-0.449031  0.194938  0.173159
0.0313843 -0.209116 -0.205974
 0.157129 0.0344776  0.208266
-0.0233432 0.00861967   0.125163
-0.536023  0.659195 0.0784699
 -0.274283  0.0389097 -0.0269691
-0.123875  0.346258 -0.299217
-1.38593 0.348527 0.184077
 -0.159099  0.0621121 -0.0585069
-0.307563  0.130007  -0.12941
-0.072218  0.216768 -0.329043
0.0353667 -0.115172  0.162088
-0.153933 -0.411894  0.481257
0.0248488 0.0422043   0.11679
 -0.287353  -0.390785 -0.0501411
-0.147608 -0.360357 0.0477236
 0.125352 -0.215804  0.232077
  0.104182 -0.0996957   0.172936
-0.129801  0.316418  0.279147
-0.0157091   -0.17003   0.193174
-0.005898   0.13415 -0.279678
-0.410011  0.259848  0.171012
-0.336111   0.31123  0.158092
0.00114996   -0.37341  0.0422683
-0.103031 0.0590119  0.126717
 0.118775  0.285496 -0.496692
 -0.303779  -0.405409 -0.0263342
 0.0310562  -0.351408 -0.0806935
-0.0409775  -0.184716  -0.190192
-0.0974298   0.405688   0.286138
-0.129171  0.277742 -0.264887
 0.0925802 -0.0268468  0.0730466
0.112605 0.064858 0.142313
-0.286226  0.516642  0.112113
 0.124201 -0.148692  0.198929
0.0166248  0.155958   0.32979
 -0.0526 0.293407 0.371318
-0.116896 0.0363908 -0.133702
-0.28197 0.423062 0.124057
-0.0997671   0.197401   -0.30176
-0.207621 -0.111503 -0.173997
 0.209216  0.328469 -0.218277
-0.106551 0.0616484  0.109781
  0.146878 -0.0107449  -0.166436
-0.100628  0.185541 -0.292606
  0.104833  0.0812801 -0.0568892
  0.117353   0.101445 -0.0381746
  -0.138352 -0.00347645   -0.223325
 0.0442274 -0.0996123  -0.139258
-0.911336 -0.055412 -0.152579
0.0224328  0.234067  0.425729
-0.105996  0.279306  0.328592
-0.284899 -0.253043  0.324295
  0.123979 -0.0479916   0.139554
-0.335834 -0.423787 0.0204429
-0.112483 0.0664356  0.145088
-0.123963 0.0166472 -0.122847
  0.105658 -0.0476499  0.0761589
-0.090096  0.165197  0.310464
-0.110972  0.383643  0.285567
-0.368848 -0.153668 -0.600222
 -0.518535 -0.0143587  -0.121509
-0.125755  0.374337 -0.271129
-0.042326  0.344544 -0.349383
0.318319 -0.40397 0.308589
-0.220497 -0.430814 -0.534948
 0.137911 0.0500453 -0.181862
 -0.10448 0.0495818  0.147607
 0.0883697 -0.0283184  0.0221966
 -0.521057 -0.0646024   0.183528
0.158553 0.124026 0.162846
 0.425717 0.0936028  -1.42864
-0.122089  0.377107  -0.25238
-0.0582018  0.0602705   0.161252
   0.18378   -0.13415 -0.0898666
-0.0418257  0.0527145   0.137097
 -0.267751  -0.424347 0.00863764
-0.0952348  0.0629997   0.197711
-0.0314907   0.329594  -0.363203
  1.04732 -0.127322 -0.192824
-0.314773  0.212319 -0.149075
  0.107411 -0.0600362   0.016228
 -0.749443 -0.0232223  0.0524989
0.0108775 0.0882839 -0.204757
-0.305429  0.374032  0.140564
-0.127471  0.446249  0.203983
0.0315625   0.50921  0.378968
-0.123876 0.0232782 -0.196095
0.0686529 0.0289335 0.0627446
   0.111963 -0.00383583    0.157675
-0.0739322   0.377883   0.324807
-0.10316 0.320867 0.335052
-0.101235  0.260408 -0.313708
-0.0881803    0.32912   0.337583
-0.0421507  -0.230193  -0.227014
-0.179459 0.0611368 0.0409717
  0.107112  -0.055386 -0.0394974
-0.0239421  0.0561216   0.113785
-0.227438 0.0501182 0.0276516
 0.107425 -0.299771  0.276811
 -0.227246  -0.362277 -0.0717716
 0.270977 -0.217974  0.246548
   0.112073 -0.00995973   -0.138116
 0.140362 0.0771488 -0.167091
 0.120545 -0.286804   0.26928
 0.0732034  -0.381667 -0.0672615
 -0.10617 -0.372567 -0.397264
 -0.194307   -0.37164 -0.0344069
 -1.25985 -0.161282  0.278615
  0.209759   0.828894 0.00828422
-0.331889 0.0854169  0.132117
   0.22507 -0.0057044  -0.216221
-0.0953998    0.18684   0.317918
  -0.24844 -0.0777842   0.189315
-0.237111 -0.304274  0.269128
  0.174172 -0.0342241   0.195955
 -0.214492  -0.411775 0.00894814
 0.140677  0.113793 -0.111631
-0.174112  0.094867 -0.100017
  0.253157 -0.0829055   0.237859
-0.00822917   -0.298415   -0.280629
-0.393419 -0.340218   0.44312
0.155828 0.262981 0.145662
-0.481423 -0.218566   0.34881
-0.101575 0.0592093  -0.10608
-0.0538762  -0.243794   0.256451
  0.152001 -0.0733717   -0.14167
-0.0254597  0.0639973    0.16975
 -0.443103 -0.0813484  -0.178873
-0.139011  0.318417 -0.300592
-0.299483 0.0452752  0.105533
-0.0871218   0.245996  -0.324335
-0.332033  0.242415 -0.151574
-0.0490618  -0.238086   0.251737
 -0.196912 -0.0681528   0.169082
   0.161841 -0.00119223    0.197874
0.143662 0.101611  0.15591
-0.496789  0.103849   0.16215
  0.024401   -1.02012 0.00767139
-0.115743 0.0393605  0.327506
 0.174947 -0.402181 -0.383697
-0.153058 -0.288352  -0.23435
  -0.2423 -0.330055 -0.371463
-0.0184326   0.239276   0.393426
-0.101158  0.219133  0.324765
-0.429713  0.281641 -0.151778
-0.0755974   0.118605  -0.298534
  0.103452 -0.0256702  -0.109409
-0.0259368  0.0449772  -0.121252
-0.0517681   0.192357  -0.335393
-0.453208 0.0115153 0.0698051
-0.129659 0.0739588 -0.114775
0.0106533 0.0908387 -0.209407
-0.132073 0.0613788  0.101182
 0.0843705 0.00979915  -0.110795
  0.155515 -0.0284764  -0.167474
-0.0422123   0.310781   0.377705
  0.154547  -0.443174 -0.0238813
0.231494 -0.43311 0.459516
-0.000845645     0.602454    0.0090847
-0.0580331   0.368202  -0.326014
-0.0122167  -0.247653  -0.235869
 0.283488  -0.19737 -0.195972
 0.477064 -0.244249  0.361552
  0.14974  0.151153 0.0677699
 0.144139  0.102981 -0.136496
 0.115569 0.0706608 -0.196875
-0.347051   0.38916  0.138466
-0.103421  0.317659 -0.308955
-0.026509  0.073457  0.191625
 0.100006 -0.328898 -0.225681
-0.488742  0.376896  0.158988
 -0.100787  -0.380825 0.00535063
 0.144332   0.13593 -0.287298
-0.0834826    0.19405   0.330013
 -0.23194   -0.3507 -0.102542
 0.374787  0.483337 -0.732106
 0.502624  -0.44853 -0.358899
  0.133766   0.124879 -0.0191407
0.210797 0.201709  0.26167
-0.0769231   0.493683  -0.238752
-0.146825 -0.309695  0.340254
-0.104998 0.0502479 -0.129289
-0.0933121   0.235587  -0.317494
-0.0841538   0.132924  -0.271928
 0.145504 0.0187501 -0.176002
-0.116363  0.393276  0.268341
-0.105139  0.306385 -0.308936
-0.103712  0.231699  0.324812
-0.125106  0.177876  0.256695
-0.253288 -0.304107 -0.335386
-0.105134  0.180104  -0.28231
0.0011729  0.496769  0.349375
0.126214 0.112915 0.029007
-0.462155    0.3204  0.163996
 0.0869611  0.0584063 -0.0535761
-0.0375115  0.0560107   0.126154
  0.120183 -0.0765022  -0.031392
0.0240948  0.128322   -0.2695
-0.0390334  -0.403546 0.00928505
-0.0125618   0.451265   0.350745
 -0.21247 -0.116629  0.197029
-0.0102799  -0.394842 0.00905585
-0.124287  0.185895 -0.250099
-0.191161 -0.118541  0.186825
-0.119963  0.162597   0.25467
-0.0495442   0.102609    0.24866
   0.19728 -0.0860496  -0.182082
-0.106461  0.288689  0.325353
-0.374462 -0.354069   0.46097
-0.351749  0.363374 -0.129331
 0.0505604  0.0443576 -0.0013204
 0.145578  0.159729 0.0647562
-0.174084 -0.298612  0.330572
-0.0784648   0.317901   0.347489
-0.144313  0.401395  0.206804
 -0.246802 -0.0675942  -0.164304
-0.335804  0.205796  0.167599
 0.0801661  -0.401418 -0.0395231
  -1.39581 -0.0646733   0.191959
-0.0972595   0.330039  -0.310835
 -0.10847 0.0771734  0.154962
 0.101224 0.0973656 -0.230301
-0.10515 0.309825 0.326164
 -0.170989 -0.0108469   -0.13088
 -1.25374  0.341011 -0.164128
-0.120866 -0.286539  0.305658
-0.0875986   0.101987   0.299237
-0.404516  0.322996 -0.143842
 -0.223729 -0.0764151  -0.362625
-0.107802  0.508581 -0.193357
 -0.163202  0.0623448 -0.0483506
0.0352025   0.20674  0.415118
 -0.135849 0.00275438  -0.209566
0.0163339 0.0477574  0.148416
 -0.759109 -0.0007612   0.155405
0.177531 0.303274 0.181598
0.166768 0.158602  0.16249
-0.236447 -0.299676 -0.275039
 0.341507  0.734627 -0.662563
-0.118238  0.149418  0.304197
-0.146579 -0.310451 -0.323715
 -0.173888    0.05824 -0.0612531
 0.174932  0.251395 -0.604161
  0.12827 0.0621125  0.180298
 0.164886  0.118692 -0.265592
 0.194207 -0.159736 0.0179394
-0.115319  0.365383  0.301554
 0.111638  -0.34219 -0.204452
-0.207888  -0.21559 -0.250591
-0.131983  0.520634  -0.16451
-0.115549  0.352142 -0.291288
-0.423303  0.269352 -0.153107
-0.107723 0.0591592   -0.2859
-0.169373 -0.284345  0.308818
-0.378561  -0.18819 -0.299686
 0.250017  0.244246 -0.317708
   -0.137289 -3.38634e-05    -0.240951
-0.109454  0.336101 -0.300123
-0.128978  0.348822  -0.25434
 -0.377507 -0.0423737   0.161567
 0.0939629  -0.417146 -0.0239745
 -0.33574  -0.40117 0.0709315
-0.0141972  -0.368673 -0.0219655
  0.153178   0.150056 -0.0574193
  0.314519  0.0306161 -0.0267932
-0.0581808  -0.238182  -0.235258
 -0.929772 -0.0431533  0.0842191
-0.114673  0.377367   0.28401
-0.0789991   0.100477  -0.232297
-0.324108   0.44773 -0.103946
  0.216797 -0.0230563  -0.206592
-0.119663 -0.442375  0.556416
 0.0670351 -0.0656946  -0.131564
-0.0292991   0.540262   0.300685
  0.139118   0.256401 -0.0953558
 -0.554719   0.676821 -0.0573701
-0.492796      0.25  0.175089
-0.311251  0.450014  0.121041
 -0.13935  0.410992 -0.190802
-0.528145  0.101587 -0.147118
-0.0514264  0.0218412  -0.113925
 -0.164612 -0.0391153   0.238759
-0.134885   0.36446 -0.285915
-0.278959  -0.12305  0.246908
0.0252081 -0.193945 -0.193902
 -0.30157 -0.374522 -0.456472
-0.118044  0.428021   0.23416
-0.240735  -0.35084  0.127856
-0.00148032   -0.291247     0.22852
 0.147964  0.148749 -0.043159
-0.03743 0.580677 0.281677
-0.108809  0.354683  0.307829
 -0.193927  -0.367524 -0.0424662
 0.131516  0.121793 0.0364973
-0.064939  0.125551  0.344753
 0.137868 0.0877669  0.909512
-0.0709669  0.0625375   0.167517
0.161091 0.622413  0.50025
-0.104665  0.281707  0.328107
 -0.258768 -0.0603209     0.1745
  -0.142582 -0.00460056    0.198288
0.0260037  -0.27017  -0.24609
-0.100173  0.161368 -0.275156
-0.042519  0.274421  -0.36161
 -0.163168 -0.0308459   -0.30932
  0.136432 -0.0910528  0.0764425
-0.121523  0.297335 -0.281707
 -0.439792 -0.0827402  -0.180025
-0.113048  0.391337  -0.25858
-0.654258 -0.298982 -0.120451
0.168373 0.120839  0.28642
-0.596918 -0.439884  0.119365
0.0655412 0.0657274 -0.177674
 0.067811 0.0315937  0.044698
-0.361307 -0.186935 -0.313908
-0.106692  -1.80352 -0.140336
  -0.16835 -0.0345869   0.336785
-0.295151  0.112255  0.135738
 -0.214117  -0.355129 -0.0798617
-0.0935955   0.302579   -0.32009
0.150023 0.322633 0.116254
-0.0990623   0.315068   0.331111
-0.185028 0.0540621 0.0970901
-0.238089   0.04522 0.0706326
-0.141346 0.0594062  0.110967
 -0.1177 0.341175 0.314973
-0.0743429   0.350549  -0.320408
0.0614615 0.0510684  0.169741
 -0.254844  0.0368898 -0.0802985
-0.407106  0.133266 -0.143824
0.0362048 0.0525785 -0.025618
0.0963481 0.0900993  0.237659
-0.0652699  0.0546903   0.148833
-0.501892 -0.227013 -0.340141
-0.101676  0.060055 -0.198999
   0.25427 -0.0866215   -1.66831
-0.134186  0.356845 -0.238849
-0.0671793  -0.443533 0.00827139
  -0.11998  0.0602537 -0.0995303
-0.121442  0.142655  0.221645
0.0886895    1.2086  0.445408
-0.247573 -0.375432  0.075959
 0.204098  0.177004 -0.362473
 -0.092504  -0.385119 0.00868337
-0.126836  0.424049 -0.203435
0.545188 0.736203 -0.87897
-0.0714789  -0.276712   -0.26842
-0.13449 0.362294 0.252378
0.0332924 -0.281432  0.270468
-0.190953 -0.107683 -0.163151
-0.0066975   0.052462   0.111924
 0.0104461   0.601874 0.00871652
-0.179882 0.0621192 0.0300078
0.211363 0.468731 -0.10252
-0.478189 -0.335905   0.45901
-0.330824  0.152634  0.157172
 0.104728 -0.174516 -0.190884
-0.129543  0.265643  0.281809
-0.582674  0.128349  0.173347
  -0.299479   -0.415035 -0.00483873
  0.246307  0.0216604 0.00638488
-0.212663 0.0523436 0.0536854
  0.137949    0.13239 -0.0331636
-0.947778  0.801434 0.0524662
 -0.038934  -0.447902 0.00948987
-0.129811  0.307544  0.281002
 -0.258564  -0.387867 -0.0400034
0.101977 0.126747  0.28809
-0.0793085   0.315973  -0.329968
   0.102681   0.0806352 -0.00203164
-0.122714  0.195371 -0.257851
  0.126862 -0.0107894   0.168452
-0.0753981   0.297912   0.352912
-0.0919283  -0.284326  -0.280892
  0.155204   0.371784 -0.0901753
0.0587838  0.300078 -0.444548
 -0.41643 0.0492794 -0.113336
 0.0496857 -0.0442773  -0.120637
0.0156027 0.0216184 -0.112665
-0.0599946    0.32606   0.358695
-0.00917892    0.343022   -0.378383
 -0.083115   -1.20314 0.00910394
  -0.323576 -0.00876311    0.134015
-0.313072  0.218063 -0.150598
-0.0950711  -0.380484  0.0124966
  -0.602315 -0.00626381   0.0288742
-0.186678  -0.34766 0.0923752
  0.234903  -0.185268 -0.0785578
 0.437795 0.0883884   1.46396
0.0473844  0.399959 -0.411083
-0.0280649   0.461922  -0.310908
0.0278184  0.114926  0.267226
-0.0103755   0.595485 0.00910523
 -0.237464   -0.44246 0.00882354
-0.319822  0.299714  0.162824
0.148257  0.13367 0.119181
 -0.143419   0.605949 0.00495452
  0.571447 -0.0376503  -0.438275
-0.0189615  0.0562207 -0.0926473
-0.0397603   0.192991    0.36232
 0.146459  0.152983 0.0286643
-0.126373  0.239489  0.286102
0.0121775 -0.368175 0.0553948
0.0235535 -0.329071 -0.120758
0.00292047 -0.0159054   0.124167
 -0.138657  -0.372774 -0.0104099
-0.00665801   -0.384996    0.022656
 -1.35022 -0.353632 -0.449279
0.0287011 -0.153912  -0.16692
 0.209716  0.777382 -0.241839
-0.243177 0.0454977 -0.027221
-0.334585  0.149915 -0.139138
-0.133784  0.398931 -0.209557
  0.144366   0.161555 -0.0591095
-0.00755516   0.0833212    0.212321
-0.124931  0.107799  0.163513
-0.0301401    0.19482   0.370491
0.0953625  -0.27361 -0.243636
-0.0955882   0.386064  -0.283132
-0.149726  0.448568  0.167648
 0.416133 -0.341212  -0.31096
 -0.095049  -0.455167 0.00805124
 -0.167387  -0.442842 0.00910439
-0.0565592  -0.403457 0.00911673
  0.151073   0.150984 -0.0111705
-0.097851  0.290496 -0.317072
  -1.33468 -0.0711104   0.186734
  0.091658 -0.0221146 -0.0676829
-0.107925  0.309176 -0.304656
0.178885 0.206372 0.194415
-0.283312 -0.272313  0.335926
-0.188365 0.0603126 0.0302589
 -0.159806 -0.0289309  -0.297414
  0.16497 0.0545022  0.221114
 0.139645  0.152701 -0.313013
 0.286821 -0.233414 0.0632999
 0.131329 -0.406666 -0.416892
 0.163649 -0.244789 -0.231928
 0.0382467   -0.36947 -0.0575913
  0.123296 -0.0774304 -0.0465044
-0.113144 -0.347867  0.386362
-0.724717 -0.473485  0.790149
 0.671675  0.940212 -0.999121
 -0.211548 -0.0370034   0.158153
 0.191038  0.104053 -0.248885
-0.0452427  0.0575079  -0.104299
 -0.139079 0.00570094  -0.336239
-0.139998  0.358885  -0.22536
-0.144522   0.48565  0.173832
  -0.552698 -0.00130185   0.0977924
 0.148444  0.130157 -0.106908
 0.155548 -0.379279  0.181865
 0.0166849  0.0473734 -0.0873988
 -0.199759 -0.0114193  -0.123379
0.0787345 0.0100852  0.100854
-0.651406  0.273341 -0.157872
-0.0330563  -0.279218  -0.256384
-0.356619    0.1488 -0.141016
-0.298208 -0.374518  0.110948
-0.133405 0.0125355  0.338819
  0.112612  0.0933408 0.00016973
 -0.240953 -0.0522108   0.168296
 0.185173  0.180233 -0.190094
-0.165204 -0.385154 0.0198891
-0.114562 0.0564264 -0.119504
-0.183611 -0.317604 -0.341147
 -0.199712 -0.0629472  -0.332053
0.0228803 0.0401646  0.131865
  0.148582   0.149283 -0.0303046
-0.37988 0.309599 0.163005
-0.219088 -0.397479   0.02018
 0.192866 -0.150894  0.081138
0.0321459 0.0449982 0.0876224
-0.190612 -0.339085  0.117237
 0.159725  0.151807 0.0198078
-0.0849147  -0.252811  -0.250021
-0.817523  0.399341 -0.417429
  0.105507 -0.0393523 -0.0792606
-0.314453  0.210873  0.167442
-0.126642  0.198728  0.269433
-0.104205  0.448247  0.240935
0.0807633 0.0533712 0.0423655
-0.156713  0.445164  0.158928
-0.112871  0.301362 -0.296995
 -0.31112 -0.402058 0.0545654
 -0.288477  0.0281219 -0.0863454
0.0614554 0.0861362  0.225758
0.0594109 -0.218606  0.229533
0.00787235  -0.379372   0.416442
-0.0311579  -0.210786   0.227494
-0.170061 -0.333375  0.377105
 0.146126 -0.347406 -0.238553
-0.126313 0.0221666  0.291289
-0.0890261  0.0861396  -0.222088
 -0.11666  0.270759 -0.289715
 0.448666  0.792567 -0.770708
 -1.60194  0.879293 0.0601819
-0.370976  0.128088  0.155822
  -0.13975  0.0613153 -0.0775789
-0.108208  0.190102  0.300497
-0.203763 -0.067856  0.342668
-0.0827892   0.201229  -0.315858
 0.150207  0.151155 -0.072493
-0.045182 -0.242681 -0.236303
  -0.23684 -0.0928735  -0.180749
-0.370859 -0.309074  0.393555
-0.0927176   0.418744   0.281522
0.0479615 0.0431694  0.152457
 0.038601 -0.286912  0.273463
 0.347373  0.413436 -0.709691
-0.502028 -0.334134 -0.438518
   -0.648003      1.29157 -0.000969917
-0.130221  0.354188  0.265449
-0.241822  -0.10351 -0.280645
 0.206804  0.127271 -0.256889
-0.186253 -0.165826  0.219044
-0.141528  0.416624  0.198966
-0.188088 0.0600151 0.0151151
 0.095727 0.0761771  0.217617
-0.125462   0.22272   0.28277
-0.010519  0.530824  0.325845
0.0305038 -0.178979  0.203048
-0.424775  0.113594 -0.140083
-0.252807 0.0427227 0.0686289
-0.0183936   0.186925   0.377206
 0.311614 -0.254669 0.0227705
 -0.133472  0.0591383 -0.0994092
-0.0664024  -0.193446  -0.199273
 -0.105157  -0.397342 0.00916136
-0.182754 -0.329453  0.129437
0.0860911 -0.171206 -0.186131
  0.15038 -0.165694  0.210658
-0.0360337 0.00778757   0.127241
  0.137415 -0.0758127  -0.100723
-0.828882  -0.11828 -0.215557
-0.0553328   0.260293  -0.351098
 0.165838  0.274551 -0.146393
0.140755 0.134061 0.079409
 0.272235  -0.22248 0.0358475
-0.517189  -0.39905  0.187566
 -0.229443 -0.0803434   0.190786
-0.0353329   0.133266   0.299846
-0.210972 -0.303266  0.232272
-0.083054  0.363157 -0.306866
-0.113824 -0.201228  0.228746
 -0.181649 -0.0515193   0.220964
-0.101832 -0.236898  0.257762
 -0.186239  0.0570473 -0.0534261
-0.0945354  -0.287265    0.30316
-0.0309616   -0.38396 0.00266514
  0.129682   0.114324 -0.0650057
-0.452727  0.333789 -0.143323
-0.146816 -0.374903  0.436243
 0.109177 0.0793909 -0.206656
-0.133531  0.411246  0.218314
 -0.417918 -0.0335208   0.155216
 -0.197863 -0.0387112  -0.143796
-0.101992  0.437255  0.253049
-0.705519 0.0081582 -0.135251
-0.116131  0.200592  0.293119
 -0.78813 -0.127908 -0.225473
 0.270764  0.495628 -0.618227
-0.105112  0.163918  0.285758
0.770475  1.17962 0.359459
0.0163788 0.0477293  0.103667
0.0207625 0.0567406  0.167376
 0.0509608 -0.0366039   0.136596
-0.0412058   -0.19883   0.218811
-0.105246  0.410712  0.271615
-0.325274   1.48472 -0.163588
  0.156396  -0.120948 -0.0348377
-0.0406202   0.291475   0.381161
-0.131253  0.362536  0.305882
 0.0685369  0.0310689 -0.0506978
-0.0839746   0.104147  -0.250256
-0.0257183  -0.416894 0.00916332
 0.0943804 -0.0347088 -0.0393377
-0.00472685    0.269919    0.408625
-0.308326  0.214151  0.167521
 -0.214703 -0.0791922  -0.314969
-0.00237655    0.209318   -0.381154
0.0113479  0.218489  0.412945
-0.409312  0.216354  0.172288
-0.147866 -0.283105  0.268522
-0.0645285   0.229824  -0.338759
0.0081842 0.0487865 -0.129702
-0.431483  0.183725  0.171602
0.267109 0.723278 0.605017
-0.103778 0.0656264  0.318205
  0.296823  0.0308114 -0.0239788
-0.439226  -0.27743 -0.386412
 -0.529484 0.00173216  0.0743985
 -0.166951  0.0636633 -0.0910805
0.0523654  0.175788  -0.34386
-0.0118136   0.170062  -0.337396
0.0695038 0.0598873  0.187375
-0.996999 -0.565296   -1.2588
0.0322441 0.0593947 -0.156675
-0.119452  0.448331  0.215031
   0.16264   0.692738 0.00880559
  0.192978 -0.0446917  -0.188155
  0.13984   0.35569 -0.511639
-0.724677  0.225679 -0.163841
 0.162865  0.140101 -0.138335
 -0.37708 0.0612979 -0.112029
-0.308807  0.333427 -0.135995
 0.176056 -0.395517  0.164165
-0.489261  0.010578 -0.105863
 -1.14288 -0.117382  0.360253
-0.429569 0.0337296  0.124927
0.310612 0.702531 0.652572
 -1.53428 -0.361746   0.46962
-0.0696105  0.0220801  -0.117522
0.0727447 -0.163322  0.197128
-0.189533 -0.393719  0.016176
-0.126556  0.374854  0.294917
  0.145593   0.140358 -0.0741944
-0.960106 -0.100031  0.213496
-0.184002 -0.310941  0.349089
-0.0545658   0.442346  -0.291065
0.0306058 -0.351208 -0.344378
-0.101697  0.419386 -0.251948
   0.2004  -0.40826 -0.141706
  0.201983 -0.0622758   0.207405
-0.069868  0.298167 -0.340055
0.138295 0.459891 0.504863
0.109232 0.435013 0.481173
-0.132097  0.391208  0.237509
  0.191671 -0.0306294   -0.19021
 0.751694 -0.561666 -0.223588
-0.281647  -0.23147  0.308796
 -1.32323 -0.273191  0.378922
 0.0955356 -0.0179186   0.112444
 -0.152055 0.00364907  -0.130438
0.220388 0.530683 0.578275
 0.15849 0.354103 0.124419
-0.55295 0.369987  -0.1391
-0.058685  0.144576  0.322708
 0.231573 -0.175429  0.127503
-0.0623761  -0.223911  -0.224021
 -0.3486 0.345663 0.152162
0.0689974 -0.335112 -0.308269
-0.667547 -0.337858 -0.471141
-1.34826 0.628432 0.118167
-0.602658 -0.299896  0.447557
-0.116925  0.360461  0.290412
 0.110264 -0.147954 -0.178241
-0.0213784  0.0679678   0.179145
  0.22469  0.368649 -0.229742
-0.0284829  0.0537766   0.148773
 -0.146597 -0.0116524  -0.191911
-0.293848 0.0862948 -0.106227
-0.346366  0.224632  -0.15104
-0.123007  0.396767   0.25139
-0.0690258  -0.212019  -0.214903
-0.120259 0.0354524  0.247692
-0.214685 -0.393809 0.0251692
   0.11485 -0.0665268 -0.0422399
-0.142005  0.367867  0.300033
   0.241711 -0.00616686   -0.225764
-0.076845 0.0446981 -0.125002
-0.122152  0.461785 -0.186881
0.0574597  0.111884  0.264187
-0.136759  0.085654  0.133899
-0.120457    0.3458  0.313746
 0.0401275   -0.36554 -0.0651574
  -1.2374 -0.200988  0.305608
 0.115664 0.0776173  -0.10953
-0.0947695  -0.465998 0.00865214
 -0.103226  -0.428856 0.00866274
 0.053553 -0.308519  0.291564
-0.0784679   0.115327  -0.291898
-0.0683189  0.0893618  -0.207156
0.0831363 -0.179367 -0.190841
-0.317204  0.225097  0.168531
-0.370853  0.185356  0.167866
0.639188 0.881678 0.616549
  0.120414 -0.0742649  0.0604159
 -1.15463 -0.219486  0.326728
  -0.264999 -0.00797458   -0.117391
 0.42228 0.258838  0.61308
-0.168824 -0.378538 0.0310435
-0.0413823   0.296608  -0.362484
-0.272223 -0.246876   1.41239
 0.223319 -0.224228 -0.226175
-0.509791 0.0147405  0.128982
-0.237157  -0.40416  0.014734
  0.255216  0.0226608 -0.0362988
-0.115462 0.0472298 -0.272019
  0.114333 -0.0557176  -0.073039
-0.156668  0.466652 -0.139935
-0.132955   0.45367  0.190774
  -0.2917 -0.118162 -0.213059
0.0526507 0.0385513 0.0781541
-0.0136703   0.426467    0.35869
-0.296724  0.407753  0.129624
-0.416738  0.221688 -0.155207
-0.0316846   0.145789   0.318619
 -0.153743  -0.459753 0.00859233
 -0.2234 0.470245 0.123304
-0.389533  0.019288 0.0944036
 -0.164918  0.0607127 -0.0535648
  0.242161  -0.196998 -0.0374643
  0.23522   0.12777 -0.299242
-0.160353 0.0619229 0.0715323
-0.142477 0.0518343  0.120168
-0.0979692  0.0671171   0.161718
-0.0686517   0.201228  -0.326369
 0.061278   0.14785 -0.298888
-0.35956 0.314106 0.160944
 -0.310057   0.495816 -0.0958077
-0.804376   0.14012 -0.373514
  0.131762 -0.0231153    1.23326
-0.121713  0.170347  -0.24154
-0.832538  0.256757    0.5092
 -0.189835  0.0584002 -0.0226153
  0.0762362  0.00279784 -0.00538383
0.0650937 0.0368269 0.0408316
-0.132286  0.203511  0.323086
-0.452568 0.0474103 -0.118455
-0.0908786   0.433831  -0.254937
 -0.188532 -0.0315424  -0.139452
0.0358223 -0.223133  0.233062
-0.0938037   0.222968   0.332002
  0.375622 0.00918138   -1.55869
 -0.16656 -0.349931 0.0781249
 -0.327999 -0.0603702   0.175677
-0.00342426   0.0487133   -0.125222
0.0113973 -0.111708  0.155496
0.0942079 -0.367983  -0.35395
-0.0488114  -0.415628   0.493917
-0.220486  0.464814 -0.106482
-0.136624  0.397068  -0.20556
-0.0388031  0.0568709   0.121498
-0.316025   0.18874 -0.146845
-0.126027  0.180519  0.255911
-0.091922  0.101942  0.229081
-0.101672   0.22277  0.325009
-0.844603 -0.142371  0.256608
0.0279424  0.184397  0.376326
 -0.155864 -0.0290173   0.251839
 0.145687  0.167939 -0.339255
0.0459761 0.0750607 -0.188817
 -1.59603 -0.133967  0.218724
0.536009 0.180383 0.637532
-0.287303  0.507566  0.113204
 -0.19175 -0.346162  0.102344
0.0167824 0.0434114 -0.105057
 0.217982 -0.142691 -0.160879
-0.0157794  -0.429745  0.0093566
-0.347932  0.170428  0.163185
-0.128517  0.348652  0.310377
  -1.43461   0.702524 -0.0837979
  0.128203 -0.0860712 -0.0376219
  0.287055 0.00500705   0.262474
 0.293729 0.0307537 0.0494837
-0.163943 0.0859679  0.117419
 0.152953  0.156054 0.0380023
-0.376442 -0.375513  0.165036
-0.274687 -0.386265 -0.051683
-0.0953261  0.0827247  -0.167431
-0.285774 -0.340129   0.41349
 -0.121576  -0.457925 0.00922479
-0.0996386   0.415014   -0.25862
 -1.19679  0.420719 0.0736664
 0.0558306  0.0392428 -0.0438006
-0.280962  0.457673  0.118231
-0.0205144  -0.231873   -0.22581
-0.201397 -0.343305  0.113548
0.0725665   0.06632 -0.180222
-0.0628493  -0.395718   0.458488
-0.246014  0.457953 -0.102021
-0.0345552   0.657523   0.282306
-0.406892  0.408921  0.137374
-0.0404186    1.06233  -0.298747
0.062892 0.474098 0.422045
 0.102927 0.0783844  0.071905
0.0688863 0.0749036 -0.192209
-0.183314 -0.167109  0.218936
0.163071 0.147519 0.153428
-0.397109  0.143011  0.162469
 -0.374307  0.0220198 -0.0271073
-0.494193 -0.026376  0.149681
-0.00229629    0.604347   -0.302247
-0.394271 -0.359231 -0.456373
  -0.667672     1.03156 -0.00449348
0.358794  1.64425 0.734615
  0.48175 -0.146612   1.38298
 0.140074  -0.34354 -0.297795
 0.0719631  0.0412447 -0.0441057
-0.119175  0.211268 -0.274055
-0.100996  0.191832  0.313624
-0.367012 -0.226606 -0.325065
 0.108644  0.166886 -0.333103
  -1.2625 -0.289766  0.399145
-0.126935  0.228051 -0.264951
-0.337097   0.22802 -0.151164
0.0130476  -0.33124 -0.318705
-0.310348  0.168798   0.15874
-0.187451  0.474953  0.135733
-0.0881441  0.0843811   0.233491
  0.190317 -0.0301417   0.207677
-0.471893  0.203439  0.175012
 0.0224571  -0.401197 0.00116865
-0.0969945  0.0817303   -0.24406
 0.191116 -0.113532 -0.177242
-0.00520639   0.0496265    -0.10679
-0.114993   0.36225  0.293184
-0.120124  0.154315  0.243558
-0.0958499  -0.444579 0.00857246
 0.158817   0.14776 -0.119385
0.0467465   0.34694   0.44441
-0.324649  0.320906  0.158262
  -0.192048 -0.00266558    0.136617
0.0251674 -0.353367 -0.349426
  -0.21928 -0.0496266  -0.148655
  -1.20718 -0.0717219  0.0364988
 -0.175526  -0.390902 0.00191195
0.0308412 0.0535525 0.0554957
-0.337473  0.318315 -0.141953
-0.178455 0.0624467 0.0244499
 0.0128386  0.0519381 -0.0751025
0.834202  0.44173 -1.40482
-0.104433  0.325369 -0.306693
   0.15307 -0.0978098   0.111368
0.0813891 -0.108554 -0.153848
 -0.443195  0.0128815 -0.0256495
-0.116834 0.0793295  0.147795
-0.0279418  -0.184428  -0.188273
-0.140003 0.0102169  0.143829
-0.115952  0.462811 -0.195177
-0.421223 -0.103151   0.21604
-0.116044  0.348907 -0.279559
0.0700687 0.0236046 0.0637039
 0.137039 -0.101276 0.0308665
-0.319796 0.0846956 -0.112357
  -0.176931 -0.00626648    0.142429
0.0695128  0.138485 -0.284557
-0.134862 -0.169423  0.206039
0.0508508 -0.125926  0.171963
-0.111971  0.466265 -0.199979
   0.149234    0.149851 -0.00687635
 -0.149379  0.0609684 -0.0832564
  -1.06181 -0.0570492 -0.0930549
-0.314145   0.35968   0.14672
-0.0597164  0.0592341   0.119809
-0.330684  0.273436 -0.149974
0.140084 0.342962 0.531329
   0.16494 -0.0232723   0.193263
 0.0370375 -0.0573042  -0.121961
0.105018 0.114493 0.270859
-0.0775089   0.432342  -0.271744
 0.0757438 -0.0314631  -0.124628
-0.358257  0.234495 -0.152107
    -0.1364   -0.374274 -0.00822755
 -0.267368 -0.0394671  -0.140067
0.0116419 -0.299305 -0.186928
-0.0623152   0.314842     0.3606
  -0.161825 -0.00460948   -0.433648
-0.146676 -0.160395   -0.1825
-0.0894345   0.159822  -0.289369
-0.377872  0.369357 -0.130808
0.0227311  0.480588 -0.359485
 0.0201763  -0.375189 -0.0338076
 -0.263887  -0.397897 -0.0233437
-0.10389 0.398886 0.283873
-0.0733484  -0.190991   -0.19862
 0.14384 0.102587 -0.86393
-0.136526  0.328355 -0.242516
 0.0356327  -0.475777 0.00877954
-0.081593 -0.180852  0.208242
-0.559943 -0.085397  0.202323
-0.0963731   0.205477   0.324722
-0.344899  0.163331  0.161997
-0.0944777   0.189572  -0.302333
-0.296509 0.0961342   0.12908
 -0.290401 -0.0871298   0.198079
-0.018759 0.0792632 -0.185228
-0.149862 -0.137175 -0.162667
-0.220656   -0.3391 -0.119528
0.00689335  -0.475044 0.00850225
-0.449236  0.244086 -0.156863
-0.548888 -0.346021 -0.424274
-0.12483 0.353724 0.278565
 0.0865464  0.0600306 -0.0346896
-0.0831962   0.457539    0.26497
-0.048505 0.0467802 -0.123352
 0.039446 0.0381005 -0.100561
-0.202096 -0.203013  0.256454
-0.123374  0.309485 -0.276444
  0.247026   -1.51381 0.00961782
 -0.238673  0.0436357 -0.0711184
-0.172225 0.0628663  0.046989
-0.0741355  -0.402681 0.00856373
-0.0392524   0.086074   0.216166
-0.0319958  -0.245249   0.254201
-0.0919931  0.0612115   0.165885
-0.400733 -0.404836 0.0989407
0.329281 0.984566  0.65755
   0.0802042 -0.000767466   -0.0619717
   -0.282942    -0.413294 -0.000822444
-0.451298  0.353704  0.156437
-0.00799658   0.0471051   -0.116628
0.614292 0.517917 0.987974
-0.223936 -0.176297 -0.226864
-0.316512  0.101924 -0.118755
-0.0880216   0.149959  -0.283681
-0.186387 0.0315071  0.115724
 0.273442  0.220003 -0.371536
 -0.10299  0.585738 -0.194472
-0.101406  0.433795   0.25683
-0.269006 -0.397647 0.0433823
  0.015183  -0.374698 -0.0303125
  -0.150274 -0.00730345    0.357051
-0.393417  0.274962 -0.151627
-0.0757086  0.0634021  -0.150885
  0.282316  0.0345837 0.00774813
-0.764203 0.0647122 -0.156301
  -0.13229   -0.42352 0.00922126
-0.159574 -0.201971  0.240783
-0.616129 -0.335191   1.11025
0.0444783 -0.442638  0.531848
 -0.368508 -0.0181252  -0.123637
-0.0132256  -0.391215 0.00481185
-0.0394267  -0.283641   0.288155
-0.809799  0.657449  0.083974
-0.126261 0.0153322  0.141998
 -0.16839 0.0231631 -0.109154
  -0.230984 -0.00607487   -0.116303
 -0.278441 -0.0695386  -0.165055
-0.12228 0.412855 0.239414
-0.0380339  -0.377212 -0.0047782
0.148488  0.18775 0.121935
   0.340426 0.000489993   -0.296317
