-0.119195 0.0296927  0.183716
-0.0592634   0.109584   0.262234
-0.096611 -0.422245  0.443579
-0.0784468   0.311574   0.348944
-0.0438304   0.143377   0.385205
 0.143408 0.0810147  0.185987
 0.150119  0.151649 0.0869952
-0.128763  0.209361  0.270305
-0.307415  0.159173 -0.138462
   -0.14195 -0.00315689    0.330026
-0.0770179   0.133037  -0.281636
-0.103922  0.235398 -0.307857
-0.105209  0.243414 -0.306742
-0.0870763   0.256792   0.342976
 0.178461 -0.115026 -0.124611
-0.0681156    0.13912  -0.293751
-0.288899 -0.390146 0.0682117
-0.0416564  -0.476082 0.00896543
    -0.74968 -0.000937559     0.154332
-0.110432  0.295916 -0.309271
-0.126249 -0.146977  -0.16632
0.0245734  -0.20882  0.222556
-0.0880585  -0.435984 0.00836368
-0.0104244   -0.24948  -0.236897
-0.0743894   0.291347   0.354398
-0.124155  0.164208  0.246565
 0.151934 -0.105455  0.185986
 0.325745 0.0335123 0.0151791
-0.203775 -0.111061  0.190016
 -0.164692 -0.0309398  -0.179796
 0.145209 -0.381239 -0.146988
0.0474537 0.0509395  0.164478
-0.0929972    0.40499  -0.273806
 0.131564 -0.243043 -0.228827
0.0179675  0.103247  0.248382
  0.129251   0.117699 -0.0396056
  -0.22622 -0.0886716   0.333315
0.0157725 0.0237033 -0.113134
 -0.12484  0.346348 -0.290975
-0.0655892    0.28418  -0.344062
  0.153333   0.150423 0.00751749
-0.0479046  -0.201415   0.222311
 -0.158822  0.0745848 -0.0980007
-0.110406  0.218434 -0.293097
-0.0926627  0.0564867   0.154587
  0.15439 -0.141542 -0.182952
  -0.450965 -0.00708292   -0.115915
 0.193125  0.126996 -0.225628
-0.386092 -0.433379 0.0216267
-0.0141295   0.100688   -0.22429
-0.0027384  0.0513264   0.148452
0.0130837 0.0790229  0.205771
-0.281736 -0.164484  0.262746
 -0.11735 0.0380834 -0.318215
-0.0940481   0.388396    0.30066
  -0.143413 -0.00861331   -0.279683
-0.0834638   0.312244  -0.326931
-0.0638883  0.0579006   0.127145
0.255386 0.109315 0.321308
-0.036764  0.257977   0.38217
 -0.175891  -0.439766 0.00882431
-0.0964108  0.0707959  -0.210589
0.110298 0.394531 0.492522
 0.133435  0.118403 0.0947513
    -0.13745 -0.000595179    -0.228468
0.176388  -0.1188 0.194895
0.0211073 0.0230614  0.130484
  0.115214  0.0955408 -0.0543277
 0.182282  0.268987 -0.179365
-0.136178  0.359273  0.249458
  -0.215591 -0.00620416    0.135754
-0.0753734   0.236583   0.349388
 0.120939  0.105809 0.0478666
 -0.3464  0.09471 0.139478
 0.115027 -0.161011  0.203742
 0.0249323 -0.0728564  -0.122584
-0.0741934   0.289876  -0.336962
-0.0816879   0.113342   0.296053
-0.0825295   0.295486  -0.329779
 0.0964564 -0.0397254 -0.0350538
0.0301538 0.0778344 -0.189722
-0.181839 0.0895931  0.113507
-0.118448  0.147076 -0.219748
  -0.379946 -0.00585269   -0.114124
0.0640788 0.0380305  0.017715
-0.0955925   0.197593  -0.304486
-0.495998  0.266782   0.17321
 0.188913  0.218968 -0.198245
0.0755055  0.026103  0.134304
-0.0423245   0.149948   -0.35594
0.0544286  0.101956  0.248466
 -0.19105 0.0578532 0.0407698
 -0.156968 0.00168792  -0.128163
0.00451001  0.0445333  -0.115012
0.0289595 0.0774147  0.206308
  0.110501 -0.0634224 -0.0271461
-0.184243 -0.521128  -0.71374
-0.0822925   0.116254  -0.253824
0.0227098 -0.230202  0.237579
-0.094827  0.316082 -0.316644
-0.0751593  0.0797534   0.205434
-0.384932 -0.166962  -0.27122
-0.305476  0.131479   0.14707
   0.235979 -0.00432405   -0.151136
-0.657967  0.153177  0.178328
 -0.627601 -0.0267278   0.149377
-0.120552   0.15166  0.236936
 0.0775801 0.00209791 -0.0400792
-0.0689833  0.0588572  -0.102227
-0.106914  0.285321 -0.307124
-0.203128 -0.178378 -0.218831
 0.133624 0.0830178  0.160573
 0.0383136  0.0555653 0.00926913
 0.0766104  0.0148491 -0.0826616
-0.00794346    0.089645    0.223081
-0.126432 0.0234643  0.163829
0.0946163 0.0621421 0.0982805
0.0605889 0.0501556 -0.151082
 0.150007 -0.101112 -0.165243
-0.0184764  -0.247191   0.254334
 0.0389758  0.0390187 -0.0931957
 0.122918 0.0896955 -0.106309
-0.0367848  -0.292339   0.297896
 0.146781  0.230643 -0.110529
 0.17547 0.138632 0.193455
 -0.19247  -0.05392 -0.341329
 0.191915 0.0695477  0.246116
 0.245653 -0.434489 -0.442355
-0.0523627  -0.384435 0.00713852
 -0.16462 -0.364572 0.0534549
0.0963541 -0.357783 -0.144437
  -1.10806 -0.0119871  -0.165309
0.0214575 -0.306898 -0.168931
-0.020701 -0.214802   0.23011
 -0.140973 0.00336597  -0.155401
-0.056935    0.2756 -0.350802
 -0.149666 -0.0188247   0.290625
-0.0970976    0.37683  -0.287412
0.0290912 0.0543856 0.0594621
 0.101107 0.0726271 0.0859227
-0.293261  0.149741 -0.132497
-0.111011  0.338057  0.316918
0.0479705 0.0136975 -0.114001
-0.0407363   -0.17871  -0.184106
-0.0139381  -0.163913  -0.170613
-0.0682214  0.0597591   0.122509
-0.200312 0.0554797 0.0477056
 -0.09299  0.170759 -0.293717
 -0.134508  -0.448118 0.00921014
 0.162999 0.0977338  0.205711
 0.240063 0.0137741 0.0414085
0.0506339 0.0546755  0.172686
-0.090443  0.270967 -0.323029
-0.475554  0.386444  0.148008
-0.0754528  0.0866958   0.219867
 -0.181929 -0.0300233  -0.137587
-0.0792794   0.157474  -0.296064
 -0.171508  -0.419143 0.00867922
-0.0636454  -0.221158   0.239281
-0.114642  0.290884 -0.294986
-0.108753   0.36324  0.303376
-0.0271026  0.0552387 -0.0983711
 -0.159802 -0.0026766   0.148418
0.0833031  0.113241  0.267466
-0.282446 -0.128202  0.373483
  0.16534  0.317639 -0.135552
 0.215709  0.037454 -0.228915
-0.110505  0.357926 -0.288189
-0.385873  0.264215  0.169745
-0.0718828   0.110012  -0.342355
 0.214739 -0.176174 0.0313963
-0.0890186   0.287994   -0.32456
 -0.195866  -0.398602 0.00851309
-0.0540364   0.148727   0.332198
0.0744087 0.0116014 0.0615887
-0.0159334  -0.286284  -0.201687
-0.388348    0.2518 -0.153799
-0.0607821   0.310538  -0.345471
0.0698231 -0.115749 -0.153608
-0.0887099  0.0401527  -0.125317
-0.264129 -0.369336 0.0989777
 0.119246  0.101686 0.0114256
  0.149506  -0.417138 -0.0697368
-0.063592 -0.155324  0.185133
0.0939304 0.0700077  0.039662
 0.0360083 0.00163851  -0.111929
0.178649 0.189993 0.193721
0.0373213 -0.388065 0.0439966
-0.194647 -0.153307 -0.195614
-0.0371028   0.100769    0.24432
0.179308 0.304342 0.184867
 0.146125  0.211364 -0.109847
-0.120987  0.261467 -0.281221
 -0.215953 -0.0833944  -0.244586
  0.123748   0.100491 -0.0821657
-0.0124479  0.0557094  -0.138301
 0.105685  0.021651 -0.144215
-0.00258553   0.0367136    0.134704
-0.0848351    0.14485  -0.283006
 0.151387  0.149817 0.0687181
-0.108001  0.215578 -0.305997
 -0.193149  -0.346529 -0.0820821
-0.113943   0.20624 -0.282033
 0.254615 -0.183429  0.172936
 -0.566425 -0.0766168   0.194291
 0.0483437  -0.380259 -0.0478991
0.0707406  -0.32753  0.313033
-0.0034743  0.0840746  -0.195758
 -0.139227  -0.403297 0.00942469
 0.147797  0.148395 0.0359638
 -0.157982  -0.373114 -0.0177204
-0.310079 -0.118597  0.230921
0.157894 0.106948 0.182489
 0.150669 0.0474624  -0.19003
-0.0298862  -0.400085  -0.441051
 -0.194574 -0.0282808   0.155515
-0.0212152  -0.284257   -0.22647
0.0104042 -0.364819  0.060335
-0.112436  0.319718 -0.294449
  0.01978 -0.270398  0.264393
0.311496 0.138278 0.394391
 0.202746  0.136341 -0.242266
-0.196954 0.0949396   0.11378
 0.284608 -0.229777 0.0867966
-0.341553  0.164394 -0.143486
0.0822402 0.0310857  0.133722
-0.104065  0.319641  0.325573
 -0.137165  -0.455369 0.00836415
-0.301583  0.111699  0.137288
 -0.149471    0.05785 -0.0963336
-0.0733449   0.127932   0.299216
-0.082802  0.143527 -0.286172
-0.107736  0.224011 -0.299068
 0.0687831  0.0245174 0.00358911
-0.103396  0.214354 -0.302614
-0.305176 0.0783264  0.122798
 0.156793 -0.114944 0.0790085
  0.115207 -0.0126524  -0.139931
 0.102277 0.0807112 0.0353705
 0.165569 0.0718047 -0.211527
 -0.41983 0.0750083 -0.125818
-0.123365  0.158118 -0.219573
-0.121422  0.163416 -0.233887
0.046515 -0.19841 0.216246
0.000154494    0.446007   -0.347617
 0.133964 0.0218948  0.186024
-0.120167  0.326109 -0.279656
 -0.137832  -0.362434 -0.0224393
-0.0736321   0.385394  -0.303196
-0.0983343    0.33769  -0.307021
-0.0545698   0.114067   0.270572
 -0.142761 -0.0054133  -0.177654
  0.0763537 8.56445e-06   0.0160543
-0.106276 0.0666405 -0.254804
 0.131842  0.104499 -0.242764
-0.0553108   0.125727   0.291819
-0.323966 -0.128073 -0.224477
-0.101717  0.421667  0.267022
-0.334906   0.30448  0.162209
 0.152791 -0.121028 0.0165179
0.0653778 0.0558938 -0.161696
  0.109704 -0.0824991  -0.149367
-0.10248 0.122049 0.298965
  0.0798352 -0.00868136  0.00179363
-0.100819  0.209934  0.322585
-0.0466553   0.204066  -0.343433
-0.128681 0.0126584 -0.196753
0.0370736 -0.338761  -0.32397
  0.140115   0.136472 -0.0141698
-0.184991 0.0565159  0.080587
 0.018419 -0.299902  0.207664
 -0.478636 -0.0578089  -0.158405
-0.110905 0.0487432  0.230744
-0.0767209   0.121497   -0.27084
0.0497966 0.0741543  0.205401
-0.0570579  0.0173036   0.131074
-0.453263 -0.330616 -0.404033
-0.0890348   0.214107  -0.315616
0.0105366 -0.288194 -0.262629
0.0506055 -0.220192 -0.212689
-0.578948  -0.14696 -0.243542
  -0.978504 -0.00619718   -0.157129
-0.777633  0.224626 -0.165396
-0.104427  0.385033   0.29296
-0.126517  0.017206 -0.181975
 -0.426566 -0.0298654   0.152425
0.0363898 0.0494781  0.058353
-0.0185271  -0.195307  -0.196414
-0.0120944  0.0195096   0.129425
   0.111643  -0.0681494 -0.00388777
0.155213  0.24335 0.146836
-0.0201473  -0.403602 0.00942899
-0.0901386  -0.181047    0.20808
-0.382109 -0.330489 -0.406296
  0.109426 -0.0248857   0.148493
-0.481764 -0.382736  0.219731
-0.12385 0.324613 0.319398
-0.380634  0.055718  0.128011
0.0233855 0.0395965 -0.116682
-0.0272396  0.0911905   0.226232
0.0127575 0.0490215  0.102839
-0.508753  0.233265  0.175965
-0.190935 -0.106842  0.172138
0.000275513    0.147428    0.317148
-0.0198759   0.301981  -0.378993
-0.0364727    0.14348  -0.389163
 0.0360701  0.0417709 -0.0773146
-0.120639  0.339765 -0.297923
-0.126326   0.19733 -0.251434
  0.128961 -0.0825827  0.0748066
 0.0795412 -0.0105987  -0.120456
 0.0192438  0.0538899 -0.0688951
-0.128816  0.374038  0.287889
0.116757 -0.45087 0.533648
-0.0671069   0.208051   0.347275
-0.426781  0.138575 -0.146879
-0.0863504  -0.433924   -0.51449
 -0.11252 -0.252722 -0.254302
-0.0947884  0.0556553   -0.13665
 -0.302062  0.0332533 -0.0552924
-0.0339125   0.111781  -0.475577
 -0.283865  0.0715918 -0.0979972
0.0444692  0.159081  0.333586
 -0.21215    0.0504 0.0963453
-0.0986431  0.0630503   0.215658
-0.425788  0.167729  0.169118
-0.302564  0.131207  0.146466
 -0.11024 0.0532381 -0.223909
 -0.255571   0.043222 -0.0146055
-0.0676029    0.19569   0.342483
-0.102931  0.402924 -0.264306
0.0360682  0.100082 -0.226328
0.154516 0.136423 0.138366
  -0.187086   0.0602244 -0.00944284
-0.233802 0.0477383 0.0429811
-0.611809   0.10254  0.170893
-0.215974 0.0487029 0.0909709
  -0.161229 -0.00341613   -0.129866
-0.0588453    0.29674  -0.348866
0.0187062  0.379596  0.407304
-1.06936 0.293345 0.182472
-0.0758907   0.109866  -0.248281
-0.082696   0.33139 -0.321641
0.010267 0.194648 0.394613
-0.490842 0.0496414  0.143409
 -0.989138 -0.0499395   0.128151
  0.168306 -0.0759302  -0.163888
 0.0272764  0.0540413 -0.0459616
-0.266447 0.0710328  0.111752
-0.116992  0.161004  0.259715
-0.101507  0.313687  0.329328
-0.0993226   0.313262  -0.314136
 0.103487   -0.3813 -0.376016
-0.326053  0.277199  0.166648
-0.41506 0.414338 0.136241
-0.109347  0.270195  0.320865
  0.10869  0.243262 -0.503575
 -0.228143 -0.0830824  -0.352899
 -1.18627 -0.497263  0.308998
-0.0124806   0.334713   0.423651
0.0897676  0.138145  0.303068
-0.101107  0.204551 -0.303912
 -0.219519  0.0714214 -0.0872706
-0.0875119   0.321634  -0.321563
-0.169177 -0.298484 -0.310878
-0.390156  0.413061 -0.116745
 0.180574 -0.094534  0.186195
-0.119267  0.223168  0.295929
  0.12895  0.116462 0.0101417
0.150237 0.142286 0.107815
-0.0530148   0.373346  -0.327839
 0.115784 0.0519182 -0.170599
-0.105153  0.336826 -0.302127
0.0685193 -0.389449 0.0668139
 -0.297399  0.0304808 -0.0835076
-0.0918566   0.134641  -0.260384
-0.121145  0.135794 -0.193246
-0.121246 -0.205527  0.234318
-0.0492894  0.0862196   0.215943
 -0.172697  0.0525581 -0.0881879
-0.175806  -0.11009  0.174383
 0.199855 -0.404683  0.166465
 0.0905825 -0.0173061  0.0903863
-0.0855208  0.0591153   0.128261
-0.105927  0.306065  0.325633
-0.115155  0.270173   0.31035
  -0.39698  -0.403834 -0.0813483
0.0234304  0.151077 -0.303941
  -0.1043 0.0594733 -0.332935
-0.104084   0.14449  0.305323
-0.101628  0.409163    0.2782
 0.0930591 -0.0346307  0.0423456
-0.0870793   -0.41946 0.00846381
  0.102009 -0.0397729   0.150351
 0.114548 -0.441962 0.0116266
-0.204905 -0.322969  0.165492
-0.110833  0.335598  0.328249
 0.165585 -0.418881 -0.431899
 -2.4203 -0.38786 0.524569
 0.238384  0.323321 -0.277025
 -0.248167 -0.0797781   0.191262
  -0.315619 -0.00752431    0.132956
-0.00237505    0.217478   -0.383977
-0.0203562  0.0540722   0.119434
-0.0981553   0.248607   0.332907
-0.384988 -0.198043  0.328891
-0.0990282  -0.198327   0.224771
-0.0988754   0.304886  -0.315243
   0.18164 -0.0379133   -0.18232
 0.258708 0.0254475 -0.029884
-0.0346556  0.0265039   0.132569
  -1.14797 -0.0792152  -0.167533
-0.0866467   0.139063   0.302812
 0.125826 -0.337812  0.251364
  0.107247 -0.0533577 -0.0519133
  0.349645 -0.0463355   0.314254
 -0.116668  -0.495237 0.00848681
-0.723387 0.0915735 -0.158876
-0.551604  0.111144 -0.151094
-0.205781 -0.076439  0.181467
 0.103235 -0.114373  0.179384
-0.145807 0.0720299 -0.103928
-0.0661613  -0.308976  -0.306785
 0.0317454 -0.0289842  -0.114332
-0.00993386    0.293771   -0.387414
-0.109518  0.225001 -0.307785
-0.0968901   0.279734   0.335592
  0.19662 -0.154348  0.211237
-0.0758823  0.0600131   0.116961
 0.102018 -0.352546 -0.324696
 0.152532  0.174157 -0.109841
-0.578403  -0.10786  0.222947
 0.0996254 -0.0450181  0.0482186
 -0.211314 -0.0647213   0.191419
   -0.0298 0.00469352  -0.107174
-0.0918947   0.105745   0.234781
  0.106044  0.0830642 -0.0562769
-2.00464 0.631894 0.146454
 -0.276242    0.52896 -0.0950596
-0.100546   0.27081 -0.314565
0.158478 0.151613 0.135739
 0.151044 -0.388378 -0.374913
 -0.21961 0.0882068 -0.093861
-0.0999248   0.240684   0.330297
0.0114502  0.119423  -0.25625
 0.247511 -0.203019 0.0262861
0.0605348 0.0379462 0.0538574
   0.16366 -0.0174748  -0.176304
-0.108288   0.21123  0.321595
 -0.143177 0.00703023   0.157664
 0.0563614  0.0355045 -0.0797952
 -0.255122   0.481836 -0.0998131
0.0992597 0.0767535 0.0594925
-0.215606 -0.380949 0.0468628
0.0133462 -0.377125 0.0432734
-0.405404 0.0187274 0.0446448
0.142537 0.183308  0.10068
-0.116202 0.0673013 -0.124516
0.00945295  -0.353939  -0.057343
 -0.671933 -0.0474996   0.166718
-0.172144 -0.109795 -0.155534
0.224003 0.228419 0.285539
 0.21775 0.135221 0.315246
  -0.247638    0.045097 0.000354293
  -0.268677   -0.406345 -0.00752681
-0.223602 0.0485943 0.0614555
 -0.222039  -0.460315 0.00882525
 -0.233146  0.0270866 -0.0919611
-0.0363212   0.150923   0.390453
0.0341037 0.0353296  0.133431
-0.023515 0.0555618  0.115899
 -1.92828 -0.489273  0.593941
  0.133461   0.123486 -0.0478596
-0.0624678   0.345558  -0.332406
-0.114987   0.30264  0.325829
 0.0858526 -0.0195397  0.0548599
 0.170557  0.216052 -0.160161
 -0.299062 -0.0167399   -0.12302
-0.0713699   0.182279  -0.315693
-0.11284 0.110314 0.190691
-0.110601  0.339361  0.316322
 0.162148  0.149532 -0.132409
-0.125648 0.0239455 -0.269714
 0.114335 -0.357007  0.345844
  0.157861   0.151708 -0.0387523
  0.123051 -0.0795635 -0.0383748
 0.222682  0.235099 -0.266012
-0.120305  0.262485  0.300962
  -0.217341   -0.393238 -0.00905325
-0.106006  0.399243  -0.26296
-0.0959279  0.0822589    -0.2931
-0.0469094  -0.177405   0.202203
  0.139694 -0.0678942  -0.123545
-0.0995115   0.325565   0.328233
 -0.179759 -0.0533473   0.294029
-0.177414 -0.215991  0.257589
-0.0711768  -0.376491  0.0022215
-0.295774  0.137693 -0.130034
 -0.221511 -0.0809157  -0.167821
  0.138655 -0.0667539   0.167666
-0.267998 -0.107817 -0.390947
-0.0172998  -0.354274   -0.36144
-0.098163  0.348311 -0.302053
-0.429098  0.286164  0.168882
  0.104927 -0.0543639 -0.0253428
-0.0496417   0.117323   0.275458
-0.109571  0.312479  0.318386
-0.0737465   0.120995  -0.268363
-0.30337 0.387632 0.135362
-0.0680188  0.0553188  -0.120215
-0.110154 0.0443846 -0.190591
 -0.41675  0.456076 -0.106395
  0.144036   0.189617 -0.0959934
-0.0401263   0.306336   0.379944
   -0.21136 -0.00555717   -0.118213
-0.208269 0.0535962 0.0353466
 -0.17107 0.0290306  0.121836
-0.0246149  0.0952195  -0.215379
-0.103228  0.265337  0.329861
0.0543993 0.0353532  0.105846
  0.122317   0.107005 0.00779311
 0.0562074 -0.0875196  -0.137631
0.0357056 0.0480001 -0.048254
   0.17185 -0.0373465  -0.176285
-0.42786 0.112873 0.157513
0.0708721 0.0360223  0.148725
0.0941838  0.114906   0.27022
-0.0614249  0.0332306  -0.119599
-0.00688003   -0.288657     0.28507
-0.0514094   0.240121   0.368399
 0.137092  0.130987 0.0196021
 -0.168978 -0.0186915   0.149938
0.0511785 0.0348557  0.137474
0.0720526 0.0284382 -0.106113
  0.0200682 -0.00875432    0.128006
 0.113456 0.0950939 -0.228403
-0.111247  0.356155 -0.284811
-0.131166   0.34699  0.268981
-0.509653 -0.171178 -0.270042
 0.204236  0.159711 -0.238565
 0.157147  0.226047 -0.133443
 -0.103377  -0.491856 0.00962382
0.305745 0.106962 0.363066
0.00739071   0.410968   0.385867
0.0591486 0.0326883  0.114283
-0.0873151  -0.382226 0.00891375
-0.127693 0.0181248 -0.123894
-0.547637  0.108343  0.167914
-0.243861 -0.290735  0.333924
  -1.94785   0.738716 -0.0962734
0.163445 0.186437  0.15834
0.0149492 -0.350982 0.0792367
-0.239283 0.0200602  0.114361
-0.309956  0.510149 -0.093622
 -0.272784 -0.0773015   0.189243
-0.0909085  0.0703312  -0.188614
-0.129219  0.350289 -0.292405
 -0.192189 -0.0645059  -0.281206
-0.136217 -0.259176 -0.263302
-0.0835224   0.110261   0.260377
-0.135984  0.348825 -0.242208
 0.144552 -0.407026  0.104435
0.0532681 -0.011039 -0.116132
-0.0393561  -0.164268   0.189572
 0.215198 -0.143806  0.209466
-0.115411 0.0471168  0.267104
-0.0790692   0.186517   0.329966
-0.0244315   0.401069   0.359288
-0.0150592  -0.285309   0.249461
-0.0793799   0.108884   0.326305
 0.186205 -0.152083 0.0411838
-0.121404   0.29419  0.299735
-0.0959303   0.212362   0.327239
  0.33992 -0.466979 -0.133716
-0.0820615   0.321291   0.353804
-0.027101  -0.18496 -0.188654
0.00928033   0.013259   0.128931
-0.168953 -0.396164 0.0092206
-0.127816  0.292031 -0.267592
-0.133301  0.406653  0.221507
-0.413274  0.203415  0.172299
  -0.314521   0.0319746 -0.00450024
-0.498954  0.241309  -0.15844
-0.193859 0.0188492 -0.104444
0.0718007 0.0151596 0.0359622
-0.604282 0.0427995  0.154371
  0.150878   0.150471 -0.0386865
0.184999 0.175338 0.208577
 -0.134999 0.00387046  -0.180486
 0.160074 0.0241522 -0.188231
-0.434129  0.137959  0.164865
-0.103782  0.290468  0.328791
-0.0944445   0.171827  -0.292772
 -0.12334 0.0298939  0.259905
-0.252657 -0.378602 0.0717728
-0.0579057   0.304897   0.365884
-0.0719193   0.283601    0.35636
-0.0338911  -0.368072   0.404122
 0.215803 -0.175851 -0.028035
 -0.152378 -0.0256073  -0.220095
0.0435901  0.046544 -0.137667
 -0.168122 -0.0621758  -0.138738
 -0.180591 -0.0535585   0.302873
0.0796235 -0.143525 -0.171017
 0.149794  0.151167 0.0302856
-0.136053 -0.479823 0.0085924
0.0940296 0.0710647  -0.19204
  0.109152 -0.0805511  -0.148469
-0.0682681   0.301391  -0.358985
-0.113532  0.299444  0.314258
-0.101274  0.295178 -0.313551
 0.137189 0.0262818 -0.172323
-0.150044 -0.012985 -0.318404
 0.204474  0.129504 -0.286434
-0.122883  0.168767  0.311689
-0.0872266  0.0851174   0.232235
-0.137945  0.429532 -0.177006
-0.0993877   0.135158  -0.246933
-0.355745    0.3028 -0.145624
-0.0532231   0.253943   0.369174
 0.114373  0.090484 0.0855979
-0.118088 -0.217069  -0.22583
-0.109607  0.380258 -0.273195
   0.2837  0.213239 -0.394953
0.0465672 0.0396097  -0.12702
 0.132878 -0.207875   0.22909
0.122502 0.026374 0.178334
  0.12806 -0.196081  0.222335
-0.363888 -0.350036  0.241717
 0.0928929 -0.0975386   0.169576
   -1.38394  -0.0899333 -0.00705562
-0.0450058  -0.163606  -0.172361
-0.0955882   0.386064  -0.283132
  0.151073   0.150984 -0.0111705
-0.097851  0.290496 -0.317072
  0.091658 -0.0221146 -0.0676829
0.178885 0.206372 0.194415
  0.16497 0.0545022  0.221114
 0.163649 -0.244789 -0.231928
  0.123296 -0.0774304 -0.0465044
 -0.211548 -0.0370034   0.158153
-0.0452427  0.0575079  -0.104299
-0.139998  0.358885  -0.22536
 0.155548 -0.379279  0.181865
 0.0166849  0.0473734 -0.0873988
-0.651406  0.273341 -0.157872
-0.133405 0.0125355  0.338819
-0.165204 -0.385154 0.0198891
-0.183611 -0.317604 -0.341147
-0.37988 0.309599 0.163005
-0.219088 -0.397479   0.02018
 0.0108089 -0.0717736   0.136598
0.0321459 0.0449982 0.0876224
 0.159725  0.151807 0.0198078
 -0.31112 -0.402058 0.0545654
0.192749 0.276883 0.602601
-0.126313 0.0221666  0.291289
-0.0890261  0.0861396  -0.222088
-0.108208  0.190102  0.300497
 0.306305 -0.291188 -0.269275
-0.0827892   0.201229  -0.315858
-0.370859 -0.309074  0.393555
0.0479615 0.0431694  0.152457
 0.206804  0.127271 -0.256889
-0.141528  0.416624  0.198966
-0.424775  0.113594 -0.140083
-0.0183936   0.186925   0.377206
 -0.105157  -0.397342 0.00916136
-0.0360337 0.00778757   0.127241
-0.0553328   0.260293  -0.351098
-0.517189  -0.39905  0.187566
-0.0353329   0.133266   0.299846
-0.083054  0.363157 -0.306866
-0.113824 -0.201228  0.228746
 -0.181649 -0.0515193   0.220964
 -0.186239  0.0570473 -0.0534261
-0.0945354  -0.287265    0.30316
-0.146816 -0.374903  0.436243
 0.109177 0.0793909 -0.206656
-0.705519 0.0081582 -0.135251
-0.369505   0.62621  0.092509
-0.0412058   -0.19883   0.218811
-0.105246  0.410712  0.271615
  0.156396  -0.120948 -0.0348377
-0.131253  0.362536  0.305882
 0.0685369  0.0310689 -0.0506978
-0.0257183  -0.416894 0.00916332
 0.0943804 -0.0347088 -0.0393377
-0.00472685    0.269919    0.408625
  0.306732  -0.555725 0.00868653
 0.166619  0.349386 -0.125276
-0.00237655    0.209318   -0.381154
-0.409312  0.216354  0.172288
-0.0645285   0.229824  -0.338759
-0.103778 0.0656264  0.318205
  0.36193  0.307982 -0.527001
-0.724677  0.225679 -0.163841
 0.162865  0.140101 -0.138335
 -0.37708 0.0612979 -0.112029
-0.308807  0.333427 -0.135995
-0.489261  0.010578 -0.105863
  0.242998  0.0153424 -0.0457178
0.0727447 -0.163322  0.197128
-0.189533 -0.393719  0.016176
-0.126556  0.374854  0.294917
  0.145593   0.140358 -0.0741944
-0.960106 -0.100031  0.213496
  0.0812914  -0.0127518 -0.00349302
   0.066774   0.0370279 -0.00219765
-0.0241607  -0.473191 0.00937427
 0.138139 -0.118588 -0.170768
-0.120767  0.225976 -0.276881
0.0480924 0.0337408 -0.112232
-0.129361  0.243517  0.281494
  0.11591 0.0795355  -0.10646
-0.120626  0.249701 -0.281488
 -0.121861  -0.400925 0.00898281
 -0.217735 -0.0754397   -0.16261
 -0.172076  -0.355754 -0.0536192
 0.133551 -0.230603  0.239699
0.0082782 -0.223247 -0.216317
-0.139735 0.0620738 0.0959367
-0.153014 0.0766272 -0.100835
 0.170409  0.158761 -0.154868
-0.241136 0.0708207   0.10737
-0.0884576   0.270976   0.342685
-0.117939  0.327673 -0.303612
-0.119046  0.345332 -0.295465
-0.115451  0.325144  0.322841
 -0.145976 -0.0152528  -0.212144
0.0437951 0.0978662  0.241075
-0.0642505  -0.278987  -0.246915
 1.07312 0.636219  1.54423
 0.169073 -0.115838 -0.174965
-0.162468 -0.129211  0.180623
   0.159354    0.151765 -0.00193002
 0.219449 0.0465734  -0.23622
-0.0934787   0.177802  -0.297088
 0.104717 0.0457717   0.17591
-0.130134  0.361104 -0.245267
0.0433256 -0.325799 -0.303048
   0.117189  -0.0754687 -0.00324057
-0.227074 -0.337394  0.148728
  0.135472   0.116418 -0.0898363
  0.10944 -0.375812 -0.119893
 -2.59685  -0.72366 -0.938081
-0.109012  0.310753   0.32244
-0.112407  0.365437 -0.284627
-0.0812681   0.104416  -0.241418
 0.149873  0.151145 0.0535972
-0.0970667  0.0979988   0.208251
-0.302502  0.112056 -0.120348
-0.154748 -0.383395  0.018434
-0.00295292   -0.108178    -0.13058
 -0.158916  -0.412504 0.00945364
-0.075708  0.123918 -0.281386
-0.0880949   0.385599  -0.290752
   0.153  0.17535 0.129673
0.0579639  0.345882 -0.437228
-0.115973 -0.151696  0.184149
 -0.288293  -0.382868 -0.0662681
-0.164071 -0.183175  0.225572
  0.103056  0.0809245 0.00177172
  -0.164877 -0.00854441    0.148027
0.0778801 0.0992052 -0.229396
 -0.142353  -0.474709 0.00909461
-0.110044  0.115074  0.208008
 0.169723 0.0188174  0.210221
  0.125221 -0.0875955  0.0147773
-0.104468  0.276721 -0.310806
0.0730422 0.0885912 -0.213727
 0.206638 0.0796045  0.261994
 0.020718  0.008134 -0.111044
-0.433458  0.174404 -0.152552
 0.0707729  0.0408148 -0.0290599
-0.125631 0.0792772  0.139572
  0.106113 -0.0406166    0.10006
-0.0851452   0.101851   0.316659
 -0.152371 0.00902399  -0.124523
-0.0860602   0.129101  -0.263439
-0.317674  0.142129 -0.135317
-0.277001  0.124968 -0.125174
0.0839176 0.0485157  0.173441
-0.129585    0.3243  0.277268
 0.023233  -0.34017 -0.093456
0.00634193 -0.0484363  -0.108183
-0.376515  0.136543 -0.140819
 0.0387245 -0.0690023  -0.125762
  0.114583  0.0962015 -0.0261886
-0.271452  0.136805 -0.124633
  0.0945277 -0.00202899     0.14128
0.0100723 -0.278082 -0.254405
  -0.18166 -0.0193782  -0.134019
 0.0380177  0.0528173 -0.0112574
-0.402635  0.128367  0.159324
  0.149227 -0.0831983   0.131827
-0.0841466  0.0561502  -0.120288
-0.102544  0.284136 -0.312731
 -0.352372  0.0245149 -0.0604897
-0.00633344   -0.278374    -0.25741
0.140151 0.247266 0.117498
-0.189614 -0.312499   0.17814
-0.206174 0.0525935 0.0722757
  0.147218 -0.0540451  -0.153521
 0.129508 0.0850441 -0.217741
 -0.259489  0.0401011 -0.0780921
  0.157625 -0.0440656   0.181113
-0.583084  0.207139 -0.159944
-0.106033  0.329307  0.321998
  -0.23211 -0.0955868   0.271455
0.143661 0.069047 0.216777
-0.044695  0.343234  0.365332
-0.106145  0.249847  0.330523
0.0685738 0.0334297 0.0866675
-1.34707 0.244909 0.193426
0.143693 0.226759 0.121752
-0.0527618  0.0955008   0.234862
-0.12845 0.250692 -0.26535
-0.144041 -0.211462 -0.226179
-0.279699 0.0324768  0.100669
   0.187752 -0.00575128   -0.195206
 -0.154782   0.060312 -0.0708617
 -0.36297 0.0498445 -0.103906
-0.181829  -0.21234 -0.237291
-0.309322 -0.149496  0.298673
-0.0863519   0.255818   -0.32572
-0.132572 -0.376337 0.0219607
-0.0405346    0.10068   -0.22635
-0.0595067   0.285409    0.36627
-0.123674  0.397848  0.249053
  0.139653 0.00198995   0.182401
 0.130784  0.119909 0.0137935
-0.0968077   0.422861   0.273143
   0.17481 -0.0129423  -0.184799
 0.0372927   -0.41832 0.00886343
-0.0290094  -0.339821   -0.34191
-0.102986  0.327918 -0.307113
-0.144014 -0.215349  0.246928
 0.189102  0.294863 -0.188799
0.0653361  -0.40156  0.442276
-0.126114  0.475607 -0.176419
 0.14894  0.16582 0.102351
-0.0183685   0.109013  -0.239887
-0.0799589   0.479237   0.257084
 -0.217283 -0.0925717   0.187733
    0.138867    -0.103993 -0.000516398
 0.125096 -0.123719  0.187567
-0.10137 0.293922 0.331291
 -0.11624  0.180893 -0.262882
  -0.28061  -0.395309 -0.0347096
 -0.256379 -0.0842041  -0.180024
 0.0953444 -0.0103812  -0.113575
-0.105393   0.21706  0.318145
  -1.30497 -0.0839659  -0.160354
-0.171872 -0.296506  0.214393
-0.0994515   0.409785   0.280535
-0.0922013  0.0925167  -0.255892
0.0191355 0.0518487 -0.138855
0.188048 0.104713 0.251072
 0.184498  -0.15104 0.0287592
-0.110733  0.173792 -0.266038
0.150117 0.150653 0.034938
  0.12675  0.114032 0.0537081
-0.0498121  -0.378223 0.00156949
-0.127576  0.447993 -0.184003
-0.10143 0.224993 0.325819
0.175931 0.366653 0.152323
0.0947946    -0.428  0.022759
-0.155131  0.077606  0.118917
 0.063859 -0.381529 -0.389108
-0.105387 0.0649852 -0.283457
0.0741233 0.0356089  0.149432
 -0.222711  -0.370933 -0.0508485
-0.714486  0.138425 -0.163443
-0.109674  0.387835 -0.271172
-0.126871 0.0212292 -0.316882
-0.0300879  0.0250145  -0.114103
0.104127 0.202995 -0.39502
-0.0674996  -0.153948   0.182943
-0.172936 -0.188026   0.23215
 -1.17564 -0.632133   1.20633
-0.174304 0.0607035 0.0625515
-0.217499 -0.081293  0.240291
0.0159425  0.138504 -0.285688
-0.11442 0.184119 0.286193
-0.271613 -0.363661  0.119217
0.0728302 0.0229626 0.0889855
-0.447462  0.333361 -0.143205
-0.11688 0.388162 0.271079
  0.18805 -0.375319  0.355407
0.154354  0.35613  0.11345
-0.0774797   0.327831   0.344996
 -0.215301 -0.0598198  -0.158058
 0.153952  0.151382 0.0331973
-0.0447597   0.274522   0.377771
-0.0974573  0.0768226   0.249543
 0.106522 -0.331941 -0.225851
0.0148739 -0.365693  -0.04309
-0.404825   0.20503  0.171876
-0.338201 0.0278846 0.0681269
-0.0287163   0.056631   -0.10172
-0.104935  0.203335 -0.302715
-0.117691  0.317428  0.325408
0.0210845 -0.349608 0.0915689
-0.553407 0.0669289 -0.139462
  0.19391 -0.129543  0.148656
-0.106981  0.236215 -0.303261
-0.341578 -0.167403 -0.393663
0.0298699 -0.179864 -0.185003
  -0.642467 -0.00265458   -0.123137
-0.228095 0.0464545 0.0838233
-0.0408984   0.250325   0.377961
-0.00300039   0.0539524    0.105143
0.0466179 -0.182883  0.206153
 0.147266 -0.435175 0.0518909
-0.121645  0.157722 -0.225722
-0.385499  0.161868 -0.147725
-0.0662102  0.0641253   -0.15059
 0.252252  -0.16947 -0.184161
-0.0565625   0.328886   -0.34314
-0.421876 -0.018324  0.142387
-0.120629 0.0611201  0.104466
-0.0688709   0.304454   0.357771
-0.0869222   0.371145  -0.299587
  0.0779989   -0.419172 -0.00665245
 -0.173132 -0.0401626   0.336766
 0.076375 -0.130065 -0.162318
-0.319412 -0.344056 -0.201214
0.147628 0.176206 0.114232
-0.100977  0.339421  0.322007
 0.156913  0.150874 0.0380098
-0.0729562  0.0892141  -0.207886
-0.066836  0.269448 -0.343007
 0.130079 -0.194996 -0.204477
0.096235 0.019895 0.151707
 -0.135039 0.00569717   0.253115
 -0.355981  -0.431641 0.00573385
0.211559  -0.1027 0.205992
 -0.194969 -0.0935033   0.170886
-0.0893402   0.337021   0.331887
0.0518947 0.0670575 -0.175743
 0.294336 -0.431948  0.437088
 -0.200397  0.0507207 -0.0796553
  0.144156  -0.106612 -0.0289397
 -0.161047 -0.0354588  -0.256845
-0.0818937   0.138685   0.298554
 -0.201882 -0.0721093   0.298536
  0.147975   0.151906 -0.0197189
 -0.172289 -0.0401132   -0.13438
-2.25667 -0.23958 0.290379
-0.00621788   0.0874023    0.632982
-0.109592  0.203265   -0.3033
0.0127633  0.113588  0.265058
-0.057197 0.0580125 -0.109085
-0.183882 -0.132176 -0.173961
 0.257796 -0.410031 -0.197995
0.149699 0.200464 0.130754
-0.0958809    0.12796   0.297242
 -0.102914  -0.467577 0.00966422
-0.116326  0.248332 -0.289542
 -0.435814  0.0133157 -0.0745338
 0.262999 0.0931997 -0.297412
 0.0601478    0.03925 -0.0203412
-0.102778  0.227281  -0.30787
0.0643029 -0.298731  0.277289
 -0.138709  -0.421385 0.00892242
-0.0644509  -0.383864 0.00878177
 -0.128468  -0.440683 0.00817011
-0.043415 0.0930796  0.230109
  -0.14679 -0.0106551   0.321385
 -0.196959  0.0787771 -0.0909011
-0.102918  0.359357 -0.292832
0.0940556 -0.126622  0.182123
   -0.139155 -0.000136258    -0.295395
 -0.328806  0.0200887 -0.0918443
-0.090879 0.0932419 -0.249142
 -0.13716 0.0166262  0.465423
0.0124135  0.047984 -0.129352
-0.10391  0.23942 0.326123
-0.00739159   0.0983612    0.237916
-0.131419  0.291649  0.322642
-0.0844807   0.340759  -0.316537
-0.109981 0.0426841  -0.17839
-0.362606  0.219225  0.169384
-0.112766  0.459226  0.219289
-0.125772  0.357286 -0.288347
  0.124652 -0.0756882  0.0760367
-0.104981  0.335734   0.32036
  0.112803  0.0944245 -0.0167028
 0.092995  0.217957 -0.420521
-0.0557418   0.116375   0.411033
-0.107422  0.332382  0.320366
-0.100776   0.21279  0.323494
-0.111969 0.0227366  0.139209
-0.0929129  0.0700655  -0.156879
-0.360985 -0.345968 -0.424655
  0.120261 -0.0551127 -0.0966444
-0.274377  0.132165  0.139498
0.195253 0.162453 0.234368
0.0914355 -0.397995 -0.414787
-0.125071  0.380827 -0.273106
-0.0776794   0.209908  -0.322782
-0.241918 -0.362229 -0.372918
-0.164524  0.054741  0.108831
-0.0956775   0.205762  -0.307754
-0.0983668   0.171292   0.303981
  0.127216    0.10577 -0.0838584
0.0125688 0.0559105 -0.145486
-0.142513 -0.365382 -0.404388
  -0.513666 -0.00320899    0.128993
 0.110604 0.0717487  0.124906
-0.104962 0.0389562 -0.493213
-0.0908919   0.077008  -0.168791
 -0.937935 -0.0456911   0.154729
-0.696311  0.100695  0.176069
 0.28489 0.209267 0.449365
-0.351918 -0.189694  -0.29467
-0.174074  0.486647 -0.130025
0.155846 0.144789 0.127416
-0.105036  0.288943 -0.309715
-0.120109 -0.335415  -0.35425
-0.131222 -0.369718 0.0293603
-0.313328 -0.377427  0.484078
   0.24703  0.0167016 -0.0561762
-0.113684  0.219832  0.305243
  0.13714 -0.102173 0.0253622
  0.255488 -0.0375843  0.0261035
-0.102066 0.0607434 -0.100076
-0.0418258   0.056031  -0.108534
 -0.165724 -0.0132495     0.1434
-0.135714  0.365732  0.291943
-0.128205  0.364983  0.264782
 0.105651 -0.325586  0.298456
-0.154094 -0.369185  0.039568
 0.135383  0.127863 0.0650864
-0.119602  0.391591 -0.245299
 0.170521  0.161309 -0.154995
-0.0688547   0.247365   0.355969
 0.0891174 -0.0262206 -0.0200952
-0.0180771  0.0797254   0.203148
 0.187181 -0.377509 -0.343799
 0.0812101 -0.0103305 -0.0160535
 -0.255958  0.0416749 -0.0656407
0.0366663 -0.300496 -0.221114
-0.107967  0.310647 -0.308498
0.0416712 0.0712386   0.19811
 -0.390626  -0.418203 -0.0426096
 0.0855958  0.0483119 -0.0832564
-0.0664934   0.314755  -0.339874
 -0.302588  -0.385384 -0.0687975
-0.151107   0.46864 -0.146554
 -0.151194  -0.407312 0.00877834
0.0854316 -0.330873  0.214195
-0.0626062   0.291214  -0.346381
-0.100058 0.0352459 -0.125036
-0.060215 0.0306775   0.13593
-0.293988 -0.355541 -0.141369
-0.0903569   0.171016   0.313439
 -0.220892  -0.400645 0.00270219
-0.00345484   0.0975247   -0.219888
 0.102886  0.350677 -0.478152
-0.118501  0.138096 -0.204055
-0.224068 -0.213958 -0.254897
-0.987173 0.0416236   0.18386
-0.0797221  -0.276421  -0.264507
0.472459 0.365074 0.788786
-0.0845138  -0.193186   0.219109
-0.0483535  0.0587528   0.123744
 0.042255  0.301933 -0.430118
-0.244965 -0.116198 -0.196067
 -0.395485 -0.0293546  -0.134068
 0.143107  0.215626 -0.617937
   -0.14027 -0.00417518    -0.28453
-0.292689  0.410146 -0.111152
   0.126817    0.114262 -0.00299743
 0.148078  0.148831 0.0597848
-0.116251   0.13318  0.219987
-0.126599  0.205822  0.273177
-0.0885453   0.292621    0.34256
-0.0133055  0.0497064   0.127915
  0.136997   0.129496 0.00579402
  0.07806 0.0336436 -0.100393
 -0.213325  0.0436882 -0.0820219
-0.096416  0.260811  0.335566
-0.329286 -0.583583  0.896946
 -0.11718  0.367293 -0.282813
-0.391667  0.282431 -0.150864
  0.18279 -0.131293   0.11205
0.0365583 0.0624148  0.180809
 0.141066  0.133685 0.0850074
 0.0426323  -0.450453 0.00828353
-0.559743  0.153989 -0.157879
0.0689635  0.250672   0.46804
-0.0135506  -0.189685   0.209628
0.069119 -0.47231 0.590456
-0.392535  0.146441 -0.145067
   0.05805  0.0398662 -0.0226967
-0.381142  0.093696 -0.127755
0.0457989 0.0446514 0.0473892
0.160205 0.235303 0.155541
 0.060898 -0.291705 -0.256179
 0.156321  0.150693 0.0171496
-0.844929  -0.40211  -0.40455
  0.0813115 -0.00748341   0.0591962
 -1.21258 -0.124184   0.23139
-0.707174  0.109702  0.178341
  0.10979 -0.338356  0.316673
 -0.125521  0.0598278 -0.0984792
-0.146377  0.451548  0.171831
-0.179658 0.0550048 -0.084266
-0.129917 -0.248771  0.272158
-0.169021 0.0621546 0.0650982
-0.145328 -0.280462   0.30096
  0.1619 0.162628 0.150168
 0.056436 -0.299593 -0.261579
-0.200937 0.0251318  0.116468
0.200647 0.197431 0.240642
-0.140367 -0.198989   0.23123
0.0668749 -0.352911 -0.337724
-0.605248  0.164207 -0.160346
-0.107088  0.257251 -0.306423
-0.117653  0.406113  0.253255
 0.0318706 -0.0286398   0.131637
0.0667925  0.332661  0.465732
-0.138272 0.0622648 0.0901703
 0.0883629 -0.0232152 -0.0368955
 0.271989 0.0116011  0.188772
-0.509696 0.0846977  0.157951
-0.103337  0.256301  0.328925
    -0.13654 -0.000530803    -0.202173
0.0126867  0.107328 -0.237254
 0.063476 -0.193456 -0.195993
 -0.159116 -0.0238947  -0.169558
 -0.358215  -0.406161 -0.0542528
-0.097324  0.229716  0.330833
-0.126556  0.381177 -0.240564
 -0.201835 -0.0426559   0.164252
0.0696829 0.0241667  0.029047
-0.026241  0.121086  0.279412
  -0.388758      0.0203 -0.00661311
-0.0820093   0.243574   0.345031
-0.0614075  -0.329107  -0.333073
0.141671  0.19844 0.114492
  0.145916 -0.0169244   0.181034
-0.384939 -0.332768  0.331876
 0.0834847 -0.0128859 -0.0409085
 -0.233516 -0.0410145    0.15877
-0.0874462  -0.194848  -0.202211
  0.18719  0.119896 -0.218405
   0.14147   0.136811 0.00583443
-0.107758  0.400328  0.277167
0.0785135 -0.298741 -0.259314
-11.8324 -3.00046  -3.9722
0.0648201  0.420794  0.439955
-0.368509 -0.191796 -0.349856
-0.119889 0.0362196 -0.372693
-0.0707377  0.0577559  -0.109835
0.242335 0.199975 0.329408
-0.107718  0.158551 -0.257741
-0.299736  0.186996  0.161499
-0.108304  0.340588 -0.297115
 0.181883 -0.121335  0.196745
 0.0375697  0.0499655 -0.0385869
0.240234 0.922229 0.568246
-0.464338  0.279481  0.170501
-0.192046 -0.339054 -0.098491
 0.247294  0.109371 -0.295622
 -0.12618  0.269419 -0.270927
-0.462092  0.170458  0.171612
-0.296822 -0.373589  0.112363
 0.150376  0.150942 0.0456255
0.245639 0.308524 0.312336
-0.657055 -0.265307 -0.377726
-0.324336  0.199842 -0.145989
 0.0838392 -0.0167173  0.0361727
-0.0079369  -0.461846   0.581189
  0.221389 -0.0984823  -0.195294
-0.103846  0.136984  0.257933
-0.336153 0.0284453  0.011581
-0.0319554  0.0850638  -0.196326
-0.260673 -0.115271  0.221735
0.00199094  -0.363711  -0.035844
-0.12035 0.322967 0.329556
  -0.44562  -0.423924 -0.0582823
0.0613679 -0.253241 -0.232502
 0.172067  0.141632 -0.164012
-0.0510259   0.305677  -0.353985
-0.237507 -0.302815 -0.330088
 0.147995  0.148654 0.0607523
-0.963147 -0.616497 0.0124944
0.0668278 -0.337714  0.170455
0.0759052 0.0308413  -0.12416
-0.24252 -0.35983 0.107724
-0.105398  0.277992  0.327277
  0.10352  0.120561 -0.262373
0.0487462   0.14697  0.314394
 0.145042  0.170033 0.0911401
 -0.234561   -0.44461 0.00879017
-0.126405  0.181075  0.258915
 0.112881 0.0110969  0.164557
 -0.224383  0.0496669 -0.0185523
 0.382742  0.699091 -0.154425
-0.335144 0.0971754  0.138198
 0.283349 0.0169285 -0.131647
  0.144361   0.142857 -0.0294078
-0.241082 0.0530035 0.0997456
-0.122748 -0.272195 -0.272511
-0.0931862  0.0982131  -0.200575
 0.0774095 0.00716267  0.0760209
9.75714e-05    0.044056   -0.119144
-0.0278047  -0.284399   0.238365
-0.370169  0.716169 0.0858766
  -0.178339   0.0628177 -0.00163196
-0.0892069   0.412229   0.290007
   0.262401   0.0288884 -0.00461184
0.00335641  -0.185945  -0.188827
-0.100261  0.196466  0.318666
0.188558 0.189801 0.213597
-0.438349  -0.17104   0.29015
-0.0150644  0.0545164 -0.0973122
 0.242035  0.015757 0.0250112
-0.102135  0.277825  0.330698
-0.104387 -0.279601 -0.255663
-0.0976769  0.0394632   0.143843
 -0.328348 -0.0361757   0.156008
  0.17181 -0.152987   0.20799
-0.173107 -0.291007  -0.30131
-0.0762138  -0.265371  -0.258539
0.00812464  -0.430115 0.00805527
-0.0945973  0.0870609  -0.247439
-0.222709 -0.297199  0.336397
-0.0727335   0.123703  -0.297823
  0.112902 -0.0695567  0.0272061
  0.144115    0.14248 -0.0276337
-0.126248  0.341961   0.28028
-0.0421029  0.0516843  -0.124648
-0.0315355   0.309847  -0.368687
0.0180201 -0.156676  -0.16623
-0.0852081   0.220808   0.338085
-0.199983 -0.389911 0.0249205
 0.0818029 -0.0111487 -0.0337075
 -0.384507  0.0207325 -0.0361011
-0.0652605  0.0446271   0.142674
-0.210866 -0.329973  0.149625
 0.160488   0.17909 -0.130143
-0.0722414  0.0227459   0.134338
  0.206536 0.00740043  -0.209793
  0.130509 -0.0834935 -0.0565898
-0.0962096  0.0824785   0.261821
 -0.199098  0.0571479 -0.0021581
-0.0991312   0.368212  -0.290837
-0.372471 0.0773328 -0.118625
  0.10711  0.042882 -0.154055
 -0.891151 -0.0488679   0.164328
0.143485 0.121282   0.2839
-0.0991697  -0.281096    0.24952
0.0906179 0.0641282 0.0539921
-0.293295  0.132198 -0.126994
-0.422373  0.223127  0.173198
-0.0669385   0.261531  -0.342357
-0.0157415  -0.393529 0.00893061
-0.0994897   0.390358  -0.276996
0.0836471 -0.318651 -0.231545
-0.128231 0.0264915 -0.130958
-0.851497 -0.146593 -0.243245
-0.107965 0.0547217  0.142158
-0.0914105    0.09518  -0.279898
0.112512 0.168298 0.352342
-0.121407  0.389133  -0.24374
-0.316569  0.101222  0.136869
   0.13149 -0.0510447  -0.135162
0.00206826   0.161669     -0.322
-0.103686  0.246832 -0.309442
0.0923436 0.0532795  0.182927
 0.0843824 -0.0015891 -0.0826412
  0.0804003 -0.00985192   0.0332034
 -0.798624 -0.0290657 -0.0878862
-0.0784231    0.26133  -0.332886
-0.0428508   0.377339  -0.334859
-0.121711 0.0609264  0.134527
-0.113465 0.0366397  -0.16292
  0.1737 0.174657 0.182367
 0.204819  0.212524 -0.231147
0.0139461 0.0402555   0.13461
-1.08817 -0.01771 0.180136
0.165295 0.249232 0.166221
0.0162899 0.0995491 -0.225329
-0.189623 0.0581633 0.0518184
-0.128307  0.188956 -0.242514
 -0.217873   -0.46254 0.00877618
-0.199182   -0.3768 0.0458051
0.0385051 -0.388694  0.424837
 -0.178217 -0.0260786   0.151887
  0.153767   0.148758 -0.0881791
   0.246415   0.0236198 -0.00404623
0.078149 -0.11551 0.173604
-0.469268 0.0809036 -0.134861
-0.000886034    0.0849615    -0.197518
  0.162534 -0.0423046  -0.168089
0.0871433 0.0711695  0.208016
-0.0566542  0.0798332  -0.185389
-0.330339 -0.309962 -0.361144
 -0.135025 0.00376054  -0.196281
-0.0289169  -0.196983  -0.199543
 0.040491 -0.154389 -0.168444
0.0444088 0.0348464 -0.110833
-0.108387  0.304114 -0.308736
-0.0385972  0.0578351  -0.101322
-0.122705  0.294532 -0.279781
   -1.3102 -0.0941207   0.191905
-0.114298  0.127136 -0.198195
  0.129463 -0.0763179  0.0921307
 -0.179785 -0.0352906   0.374027
   0.240581 -0.00492977    0.210284
 -0.228474   0.070358 -0.0871141
-0.00320866    0.122998    0.279749
-0.0633247   0.381077  -0.314948
-0.129025  0.377985 -0.237611
-0.00710388    0.318061    0.404269
-0.306596 0.0325436 0.0653886
-0.31349 0.202901 0.165805
0.0838077 0.0579237 0.0343464
 0.197304  0.103097 -0.250392
-0.334473   0.12621  -0.13268
 -0.292821    0.53941 -0.0924872
 -0.11562 0.0461583  0.271508
-0.0350968  0.0354143  -0.118136
-0.319739 -0.415858 -0.535621
-0.308411  0.145415 -0.134956
  0.14826  0.189377 -0.107222
-0.117464  0.350571  0.310249
-0.101446 -0.215434   0.24094
-0.536336  0.328306  0.165106
   -0.258544    0.0422511 -0.000230795
  0.148881   0.149694 -0.0233234
 -0.47579 -0.331618 -0.424209
0.0618172 0.0359113  0.144941
-0.0899192   0.306906   0.340335
-0.0956992   0.300037   0.335879
 0.178649 -0.143504 0.0494365
  0.195028 -0.0178822   0.213156
-0.121605  0.240558   0.29691
  -1.2965 -0.122836 -0.208734
-0.0818655  0.0194658   0.133473
0.0862525 0.0883709 -0.216008
  0.11005 0.0325515   0.16967
-0.123252  0.198279  0.276113
 0.219361 -0.484436 -0.564974
-0.101797   0.16941  0.296969
 0.0977666  0.0665699 -0.0765831
-0.248582 -0.391911 0.0433796
-0.222358 -0.227601  0.282743
-0.0970338   0.241705   0.332921
0.0502316 0.0452464 0.0164334
-0.119311  0.360583  -0.28576
-0.238428  0.543506 -0.103123
0.143294 0.232721 0.122115
   0.148055   -0.113497 -0.00984273
-0.101952  0.206147 -0.301798
 -0.168971 -0.0431285   0.252281
-0.0707457   0.118749  -0.324168
 0.307206  0.581936 -0.644223
0.153292 0.160862 0.119395
  0.149655  -0.109535 -0.0484656
-0.199592 0.0462883  0.100959
-0.283601 -0.128476 -0.357569
 0.235896  0.446032 -0.194262
 0.200255  0.117358 -0.249264
  -1.29713 -0.0816498 -0.0699877
  0.141131    0.18836 -0.0887563
-0.104033  0.276121 -0.311312
-0.0809394  -0.276762  -0.257367
 0.215877 -0.141053 -0.159439
-0.0421573   0.174603  -0.334242
-0.0630652  0.0311761   0.136538
  0.146082    0.14477 0.00728717
-0.0106756   -0.28482   0.258495
-0.129546 0.0224642  0.152909
-0.0926962   0.304295  -0.320637
-0.132928  0.375847 -0.277411
-0.446028  0.124251  0.162623
0.0981532 -0.121733 -0.164301
-0.112807  0.195231 -0.277719
-0.0326375    0.20485   0.372244
0.0139584 -0.170176 -0.175907
-0.214389 -0.364551 0.0773726
-0.146789  -0.28856 -0.210404
 0.091602 0.0415785 -0.147477
-0.0669545  -0.307573   0.322891
0.0621488 -0.147092 -0.168271
-0.273095 -0.165686  0.259543
-0.286265 -0.381946 0.0848446
-0.140499 -0.430804 -0.519039
0.0619854 0.0600839  0.185156
   -0.115  0.151018 -0.287106
-0.0887808   0.322602   0.337614
 0.118175 0.0693145   -0.1297
-0.100241  0.172971  0.311665
0.00369237  -0.352969 -0.0494776
0.0696205 0.0451814 -0.145447
 0.169087 -0.135737 0.0372336
0.0052004 -0.109577 -0.134795
-0.415278  0.165324 -0.150494
-0.0923425   0.160168  -0.285866
-0.320816   0.39705  0.133973
-0.000937533    -0.206507     0.222788
-0.00691236    0.026887   -0.113173
-0.301378 -0.208935  0.301655
 0.198742 -0.409412  0.417887
-0.105759  0.319794 -0.306307
-0.121312  0.192386  0.277074
  0.156138 -0.0776674   0.174909
-0.106613  0.299219 -0.307491
  -0.239388   0.0463072 -0.00974347
-0.124886   0.20605 -0.259898
-0.101355 0.0957991 -0.172721
-0.129385  0.401065  0.233838
   0.149234    0.149851 -0.00687635
 -0.149379  0.0609684 -0.0832564
 0.0344027 -0.0118471  -0.112797
-0.330684  0.273436 -0.149974
   0.16494 -0.0232723   0.193263
 0.0370375 -0.0573042  -0.121961
 0.315585 -0.475957  -0.51292
0.0116419 -0.299305 -0.186928
-0.0623152   0.314842     0.3606
 -0.263887  -0.397897 -0.0233437
-0.10389 0.398886 0.283873
 0.14384 0.102587 -0.86393
-0.0963731   0.205477   0.324722
 -0.290401 -0.0871298   0.198079
-0.018759 0.0792632 -0.185228
0.00689335  -0.475044 0.00850225
-0.12483 0.353724 0.278565
 0.0865464  0.0600306 -0.0346896
-0.048505 0.0467802 -0.123352
 0.039446 0.0381005 -0.100561
-0.172225 0.0628663  0.046989
-0.0392524   0.086074   0.216166
-0.0319958  -0.245249   0.254201
 -1.96376 -0.564277  0.614444
   0.0802042 -0.000767466   -0.0619717
-0.00799658   0.0471051   -0.116628
-0.223936 -0.176297 -0.226864
-0.316512  0.101924 -0.118755
-0.186387 0.0315071  0.115724
-0.101406  0.433795   0.25683
-0.269006 -0.397647 0.0433823
  -0.150274 -0.00730345    0.357051
-0.0757086  0.0634021  -0.150885
  -0.13229   -0.42352 0.00922126
  -0.1163  0.134658 -0.205984
0.0444783 -0.442638  0.531848
-0.0394267  -0.283641   0.288155
-0.809799  0.657449  0.083974
-0.126261 0.0153322  0.141998
 -0.16839 0.0231631 -0.109154
0.148488  0.18775 0.121935
0.0176626   -0.1823   0.20427
0.135911 0.128756  0.06436
-0.106517  0.033111  0.143444
  0.277323  -0.222002 -0.0853104
-0.510866 -0.127042  0.240838
-0.384243 -0.390363  0.124432
  0.133059 -0.0967047 -0.0106718
 -0.211035  0.0536488 -0.0257833
-0.640586 -0.051209 -0.153724
0.0500771 -0.157586 -0.172956
-0.0282682  0.0554072   0.112725
-0.00759201   -0.287081    0.242883
0.0246951 -0.401509 0.0169786
-0.231564 0.0171478 -0.098832
  0.153245 -0.0595278  -0.156536
0.0378036 -0.111676  0.161177
  0.109311  0.0888712 -0.0127419
 -0.149646 -0.0219268  -0.257437
-0.0539806   0.149076     -0.314
-0.100406  0.405455 -0.265402
-0.0149089   -1.48792 0.00867511
 0.150214 -0.417469  0.088394
   0.0855275 -0.000773624     0.111086
-0.113905  0.225108 -0.288809
 -0.287228  -0.438727 0.00953149
-0.105761  0.113433 -0.196825
-0.0244238   0.293655   0.393567
-0.074655 -0.165137 -0.175927
-0.100028 0.0792396 -0.268068
 -0.144583 -0.0126687  -0.232702
-0.0383013   0.131322   -0.27955
0.118653 -0.37821 0.141924
-0.140332 0.0498482  -0.10559
-0.832984 0.0738002 -0.162773
  0.143568 -0.0930268 -0.0799966
-0.0872954    0.21316   0.334317
-0.288913  0.114503   0.13511
-0.0599402   0.273917   0.365937
 -0.223234  0.0509099 0.00990072
-0.0789266   0.204222   0.337471
-0.0974004   0.255327  -0.316554
-0.361387  0.208612 -0.151914
-0.0280497   0.124235   0.284521
-0.124741  0.235469 -0.271385
-0.101664  0.144276  -0.28786
  0.118244 -0.0739372  0.0510814
-0.126712  0.511905 -0.169829
0.0497303 -0.366056 -0.364485
-0.0727643   0.101687   0.250264
-0.257283 -0.354175  0.131713
 0.0601621  -0.484298 0.00892839
 0.119405 0.0859027  0.120532
 0.227624 -0.075799  0.221372
0.0599708  0.098453 -0.226677
-0.318218  0.183385 -0.143693
-0.114969 -0.148893  0.181823
 -0.119004  -0.465101 0.00852446
-0.0990696   0.156839   0.290142
-0.111504  0.118649 -0.184844
-0.189809  0.053684 0.0889494
-0.338509 -0.334405 -0.259238
  0.105826 -0.0209084  -0.127963
-0.465887 0.0011839  0.125358
-0.483044  0.279932 -0.153205
-0.440616 0.0157023 -0.100718
-0.119096 0.0145467 -0.121217
  0.270866  0.0190778 -0.0935716
 0.135628 -0.174742 -0.195211
 -0.17511 0.0622524 0.0441997
-0.106248   0.35012  -0.29461
 0.242266 -0.379425  0.346006
-0.100296  0.370625  0.306202
-0.137753   0.06058  0.108881
-0.102882  0.153157  -0.29114
 0.129534 -0.405645 -0.076277
 0.136308 0.0833208 -0.216368
 0.202508  0.149463 -0.236599
 -0.115327  0.0606974 -0.0957497
-0.0978168   0.276705   -0.31697
0.247552 0.178144 -0.32791
