   0.244334 -0.00976513   0.0187776
-0.0128929   0.245889 0.00918835
0.00633134  -0.236768  0.0267486
 0.0115414 -0.0385503  -0.279852
-0.0809934  -0.094019  -0.186879
-0.0768705  -0.199141 -0.0274784
-0.211466  0.120278 -0.232721
-0.231696   0.17641 -0.325173
-0.051318  -0.19572 0.0145882
-0.0578578   0.401922  0.0509878
-0.207268  0.101252  0.252335
-0.241902  0.219406 -0.304005
-0.181078  0.175944 -0.150323
0.000643102    0.264094   0.0088812
-0.085117  0.277812 0.0116988
-0.0541538  -0.195722  0.0155481
-0.0464323   0.332032 -0.0111985
   0.227447    0.238521 -0.00990833
-0.226622  0.340472  0.407952
-0.120909  0.282645  0.057506
-0.0544771 -0.0593935   0.235492
-0.0760128  -0.218214  -0.032022
-0.0578831  -0.374633   0.117134
-0.0651578   0.252276  0.0547314
-0.222029  0.167479  0.374107
   0.170185   0.0283427 -0.00745533
-0.153376  0.273245  0.111565
 -0.13015  0.336743 0.0712865
-0.246641  0.332689 -0.326761
0.000704918    0.262917  0.00875329
  -0.013844     -0.2184 -0.00475582
-0.213625  0.154661 -0.220789
-0.167246  0.190759 0.0015249
   0.241151      0.1885 -0.00149378
-0.0545389 -0.0677381  -0.267639
-0.0474587 -0.0568052  -0.245141
-0.0677005   0.215724   0.113483
-0.0732417 -0.0624515  -0.185972
 -0.0292404   -0.190539 -0.00854819
-0.0535168 -0.0795198  -0.199633
  -0.167918      0.1903 -0.00848627
-0.207765 0.0886173  0.326275
-0.237706  0.335821  0.384221
-0.0639395  -0.349628   0.108929
-0.242229  0.241238  0.292658
-0.0863536  -0.187277   0.008692
-0.247424  0.271162 -0.309357
-0.0136858   0.374648 -0.0292258
-0.00930541    0.216208   0.0735399
-0.238623  0.298169 -0.380619
 -0.048282 -0.0674431  -0.243132
-0.0562713  -0.428128   0.116241
-0.103932 -0.449039  0.136002
-0.236889  0.328765  0.393428
  0.196501 -0.0363503 0.00998946
-0.0409349   0.412241 -0.0378833
  0.215594   0.124238 -0.0209519
-0.0201171  -0.469443   0.127829
-0.0318364   0.241068 -0.0268842
-0.0223083   0.315942  0.0550811
-0.0355561  -0.201922  0.0150578
-0.0272676 -0.0912836   0.276309
-0.209417 0.0842544  0.295851
-0.113276   0.35245 0.0306043
-0.195288 0.0905428  0.349004
-0.0744939  -0.116014 0.00742214
-0.0455042  -0.465894  0.0843352
-0.0994682   0.248298  0.0613791
-0.211442  0.155185 -0.370141
-0.136152  0.223864 0.0951353
-0.176457 0.0201419 -0.196561
 0.235341  0.206128 0.0191219
-0.174966  0.115038  0.167553
0.0924815  0.326077 0.0117803
-0.0760652  -0.317159  0.0995448
-0.203307  0.402859  -0.16573
-0.189159 0.0429596 -0.225643
-0.0706584  -0.350743  -0.092498
-0.0850858 -0.0778681  -0.326303
 0.243773  0.146656 0.0138501
-0.206342  0.127648  -0.35248
-0.0600717  -0.064481   0.232443
 -0.22105  0.212901 -0.400348
-0.0567984 -0.0932697   0.276387
-0.217649  0.433396  0.304932
-0.0919704   0.261276 -0.0205107
-0.215058  0.391462  0.383817
-0.0434254  -0.242268 -0.0317378
-0.244724  0.307144  0.280081
 0.210857  0.251483 0.0218958
-0.0975736  0.0384664 0.00465517
-0.0539391   0.250262  0.0686719
-0.226668    0.2042 -0.380062
-0.100642   0.26702 0.0550458
-0.191394 0.0489693  0.241362
    0.18338    0.280069 -0.00192369
-0.205815  0.160247  0.216677
-0.0230934  -0.086652  -0.254557
-0.115369 -0.121075 0.0312485
-0.0743665   0.135505 0.00321762
0.000961465   -0.241034   0.0383527
-0.154152  0.205563 0.0543887
-0.225593  0.279867    0.4332
 -0.0365101    -0.18071 -0.00115952
  -0.17034   0.187886 -0.0106602
-0.0762802 -0.0762532   0.328062
-0.0669203  -0.213638  0.0333174
-0.0216909 -0.0907836  -0.236085
-0.072262 -0.421365 -0.101027
-0.204294   0.46169 -0.228801
-0.217391  0.165437  0.242563
-0.0830219   0.286482   0.008887
-0.240479  0.385238 -0.270895
-0.204232 0.0711427  0.290999
-0.0656126   0.427784   0.056141
-0.0365927  -0.252883  0.0564427
-0.0917357 -0.0809903 0.00964488
-0.234366  0.260535  0.256461
 0.0162989   0.191505 0.00232215
-0.210409    0.2187  0.214576
-0.0111084  -0.200494  0.0416068
-0.0889061   0.248115 -0.0432976
-0.226839  0.283566 -0.415149
  0.179376   0.276951 0.00356059
 -0.078338  -0.160826 -0.0179643
-0.0118439   0.328466  0.0598908
-0.176731  0.123673 -0.145753
-0.0385133   0.252737  0.0585746
-0.177463 0.0675371 -0.169999
-0.207821  0.455991 -0.251973
-0.0428956  -0.461036  -0.124966
-0.0712113   0.299484 0.00958942
 -0.150567   0.208505 -0.0447702
 -0.138927   0.220089 -0.0484732
 -0.0861861    0.267715 -0.00643485
 -0.100931   0.342794 -0.0275694
-0.0564887  -0.112185  -0.290216
-0.195803  0.317558  0.168521
-0.216084  0.221944  0.224843
 0.0232621   0.199377 0.00920255
 -0.085229   0.276523 0.00545287
 0.0172438  -0.232557 0.00945565
-0.0557865  -0.269244  0.0697775
-0.0327481  -0.468138 -0.0711059
-0.0118461   0.213827 -0.0492155
-0.0777957  0.0423877  0.0169921
-0.0767352   0.415434 -0.0316855
-0.0601113   -0.41235   0.117166
-0.0176886   0.280991  0.0448643
 -0.050379   0.357626 -0.0209324
-0.0545228   0.307768  0.0158482
 -0.112103  -0.231862 -0.0425454
0.00166246  -0.238501 -0.0174805
-0.172518  0.164348 -0.135321
-0.0773019  -0.191303  0.0392711
-0.0550656   0.231478 0.00413635
 -0.120927  -0.111612 -0.0157768
-0.213544  0.100997  0.316541
-0.00985393 -0.00757045   -0.294007
  -0.08365 -0.0949282   0.164695
-0.0496848  -0.440997   0.118027
-0.0453785  -0.119357  0.0254024
 -0.0910383  -0.0850786 -0.00736173
-0.0424334   0.290943  0.0283937
-0.246728  0.296781  0.290641
-0.227955  0.260773  0.240999
-0.0469432   0.240274 -0.0654345
-0.0866558   0.313351  0.0206246
-0.076312 -0.335645 -0.095787
0.0142351 -0.103696 -0.270689
 -0.0858756 -0.00784323 0.000989512
-0.206663   0.14187  0.380878
-0.242374  0.378733  0.291212
-0.0280224  -0.216483  0.0261502
-0.0749689   0.364219  0.0362919
0.00301332   0.368342 -0.0273342
-0.0313387   0.385162 -0.0311119
-0.185684  0.143476  0.179306
-0.205756  0.180584  0.212363
-0.15061 0.173244 0.129986
-0.0599792  -0.144747  0.0125202
 0.0267441 -0.0926907  -0.273803
-0.244845  0.259611  0.299996
-0.0800051  -0.196361  0.0133718
 -0.123503   0.305478 0.00621375
0.0195561  0.323798 0.0162907
   0.239702    0.196372 -0.00295719
-0.092785 -0.252502  0.068043
  0.168628   0.276289 0.00905906
-0.111595 -0.171195 0.0409954
-0.23016 0.160639 0.328956
-0.0418551  -0.451432  -0.106654
-0.22397 0.410964 0.337489
-0.0865386 -0.0263143  0.0273335
  0.197208 -0.0405486  0.0054385
-0.133027  0.300602 0.0664879
0.0243662  0.346431 0.0286689
-0.0649344   0.235476 -0.0557111
-0.119196 -0.163768 0.0423838
0.0543117  0.348116 0.0209986
-0.0656563   0.269207  0.0219167
 -0.0530941    0.233228 -0.00448793
-0.231507  0.280141 -0.228085
-0.197799  0.386917 -0.149364
 -0.068122 -0.0872274   0.232318
-0.0417755  -0.196943 -0.0236033
-0.0891706  -0.123227 0.00637803
 0.198924   0.22264 0.0344261
-0.0772677  0.0652473 0.00435892
-0.0821422  -0.150641  0.0184712
-0.0712714   0.254235 -0.0337112
-0.240182  0.368306 -0.329515
0.188783 0.263899 0.011266
  0.00415769    -0.231954 -0.000584163
-0.217332  0.142252  0.363181
-0.00573927   -0.233566   0.0342524
-0.0945444  -0.205553 -0.0239386
-0.186595 0.0486482 -0.205851
-0.0967262  -0.209992  0.0438662
-0.0107786  -0.203106  0.0328288
-0.070364  0.387728 -0.039882
-0.242321  0.224712  0.336043
-0.151942  0.199199  0.119488
-0.248451  0.305852  0.319681
 -0.145802   0.323672 -0.0710737
-0.150888 -0.486317 -0.081913
-0.0296536   0.238387  -0.028291
-0.228988  0.246039 -0.402722
 -0.158557   0.288384 -0.0984073
-0.034425 -0.456931  -0.10802
-0.0108525  -0.480267 -0.0873946
   0.223532    0.228836 -0.00018199
-0.224945  0.263055  0.436442
-0.0404001 -0.0809622   0.246124
 -0.115097  -0.207453 -0.0402285
 0.242158  0.189033 0.0128327
-0.225659  0.143593  0.294439
0.00211699 -0.0780665  -0.265888
  0.200787  0.0687441 0.00242389
-0.0372419     0.3987   0.051292
-0.0871614 -0.0382833  0.0396216
-0.0526168   0.288742 0.00935075
-0.177508  0.380978 -0.120797
-0.220071  0.131454 -0.262052
-0.0227784   0.284304  -0.040243
-0.203109  0.390044  0.177482
 -0.116291   -0.19181 0.00768045
-0.0532936   0.346003  0.0332365
-0.0416172   0.345732 -0.0368647
-0.0720406   0.346603 0.00210709
 0.182301  0.255959 0.0164679
   0.221611    0.240921 -0.00762345
 0.214252  0.241746 0.0174832
-0.242959  0.320241 -0.351778
-0.0208935   0.303017 -0.0390599
-0.105927  0.241647 0.0487729
-0.220714  0.128554  -0.27274
0.00707714   0.306738 0.00883532
 -0.077784    -0.1776 -0.0214068
-0.0634617   0.406196 -0.0338082
-0.0031468  -0.102013   0.283904
-0.0246414    0.22547  -0.057499
-0.0361641  -0.053581    0.24216
-0.0820064  -0.432383   0.123239
-0.202985  0.203777  0.202939
-0.242327  0.260038  0.374284
-0.0407941    0.35257 -0.0215894
-0.215872  0.152412  0.244278
-0.0296212   0.385799  0.0526219
 0.0187826   0.179881 -0.0347807
-0.070842 -0.381043  -0.09814
-0.0344977 -0.0877687   0.230871
-0.0537794   0.232956  0.0739391
 0.0215061   0.364465 -0.0215474
-0.0839695 -0.0567044  -0.323949
-0.0929772   0.342478  0.0352455
 -0.23682  0.348948 -0.361997
-0.245576  0.357215 -0.285129
 0.0180006   0.372344 -0.0283512
-0.108338 -0.448019 -0.110956
-0.088738 -0.197088 0.0367613
-0.213495  0.438473 -0.289015
-0.0755973   0.240721 -0.0567168
  0.166764   0.293184 0.00237774
-0.0816842  0.0246392  0.0097454
-0.0284047  -0.201443  0.0240081
-0.237016  0.362188 -0.232157
-0.0694404   0.312058 0.00461908
 0.130094  0.251677 0.0238711
-0.00765938   -0.480632     0.11323
-0.0393582   -0.19868 0.00634087
-0.0359555   0.265735  0.0505621
   0.232349     0.21607 -0.00361525
0.0114469 -0.126492 -0.281712
-0.210331  0.273367 -0.186588
-0.0279858    0.26755 0.00883782
  0.187635  0.0418314 0.00536572
 -0.115487   0.245812 0.00464407
 0.0157225  -0.234619 0.00884446
 -0.040852   -0.19806 0.00429505
  0.178246   0.280967 0.00113105
 -0.0210197    0.323922 -0.00827355
-0.0312415   0.423177  0.0561081
  0.231526   0.145367 -0.0136406
-0.0468248  -0.197426  0.0149156
  0.175717  0.0135336 0.00248549
-0.240237  0.379187 -0.256342
-0.024985  0.313308 0.0184287
-0.192486 0.0482024 -0.289925
-0.0526264   0.430168 -0.0379313
  -0.046588    0.294384 -0.00254633
-0.0104112    0.26418  0.0810415
-0.0879337   0.288243  0.0127251
-0.231885  0.414264  0.294156
-0.233591  0.409962 -0.269301
-0.0970497  -0.207882 0.00833474
-0.052391 -0.110942  0.303036
 -0.103105   0.259441 -0.0264029
-0.0764147  -0.306138  -0.101352
-0.104525  0.260249 0.0330724
-0.0546336  -0.455372  -0.124523
 -0.149668   0.224367 -0.0142279
-0.199732 0.0754815  0.330063
-0.203922  0.125425 -0.354499
  0.126038   0.312864 0.00849612
 -0.105293   0.255659 0.00261263
-0.0754684  -0.368398 -0.0968868
-0.184678  0.307627  0.153166
-0.0868154 -0.0378598  0.0437734
  0.093574   0.329063 0.00841786
    0.22223    0.221202 -0.00470784
 -0.11852  0.363047 -0.045322
-0.0393416   0.241374  0.0772615
-0.0300588  -0.483568 -0.0537095
 -0.0910461  -0.0758253 -0.00867654
-0.0545763 -0.0884511   0.271526
 -0.101401  -0.252551 -0.0545725
   0.226275    0.227466 -0.00268639
-0.0266908   0.234868  0.0670038
-0.0454226   0.430147  0.0582964
-0.0357458 -0.0901573  -0.208202
-0.0768476  -0.389239   0.116688
-0.244764  0.251186 -0.292484
 0.0294844 -0.0977711    0.29213
-0.0937047  -0.123253  0.0144353
-0.0199717   0.333001  0.0314325
 0.0274343   0.367666 -0.0247782
 -0.0983828    0.263232 -0.00272228
-0.0259171 -0.0920976  -0.216481
 -0.0192231   -0.212727 -0.00177088
-0.0344721   0.285652  0.0379295
-0.0816537   0.236115 0.00846557
 0.192388 0.0525762 0.0108643
-0.0613585  -0.473147  0.0684711
-0.102001 -0.187127 0.0440378
  -0.0304414    -0.194132 -0.000645131
-0.246706  0.262245 -0.299302
-0.211636  0.451201 -0.259905
 0.0374992 -0.0565194  -0.281272
-0.0514826  -0.454054  0.0941943
-0.0846432  -0.178527  0.0499314
-0.0842231  -0.450779   -0.12415
-0.214078  0.185782  0.408625
-0.231712  0.270543 -0.402729
-0.0538547 -0.0651255   0.246155
-0.0201014  -0.116061  -0.277262
-0.0951088  -0.210041 -0.0200109
-0.220083  0.118967 -0.273727
0.00229158    0.31332 0.00782216
-0.0110605    0.21718 -0.0355919
 0.186106  0.271889 0.0147286
-0.222285  0.130966  0.325079
-0.0646513  -0.322689 -0.0783275
-0.242827  0.319204  0.271797
-0.0975323   0.273706 -0.0091396
-0.139713 -0.484559  0.151976
 0.0337509 -0.0513624   0.298156
-0.0621778  -0.162929 -0.0285496
-0.029923 -0.203719 0.0120524
-0.0664793  -0.149434 -0.0413706
-0.172153  0.146257 -0.136126
0.0287274 -0.107147  0.292747
 0.021823 -0.247255 0.0113941
-0.0351725   0.298261 -0.0200844
-0.0810301  -0.187492  0.0264615
-0.0114471   0.318961  0.0426003
-0.129295  0.312402 0.0655565
-0.0790702 -0.0778626   0.134989
-0.202631  0.235964  0.197883
-0.0906607  -0.415863  -0.105664
-0.00640388   -0.219355   0.0104956
 -0.0587905    0.324037 -0.00450766
-0.0545014  -0.446274   0.130301
  0.233971   0.210966 0.00376892
 -0.122039  -0.109408 -0.0170261
  0.014533 -0.0431155   0.295293
-0.0310345  -0.199176 -0.0019168
-0.236822  0.285013  0.259241
-0.0477852   0.366953 -0.0243273
-0.0943942   0.239602  0.0714107
-0.0212564   0.374378  -0.029047
 0.194292 0.0830603 0.0351751
-0.238857   0.23235 -0.357733
-0.0136976   0.307307 0.00902423
-0.0704528  -0.190409 -0.0186296
-0.0266374   0.366426  0.0443781
-0.0764299  -0.181743  0.0654277
-0.203039    0.2117 -0.183984
-0.178137  0.103766 -0.155599
-0.139987  0.279014 0.0816576
-0.128384    0.2401 0.0822711
-0.211865  0.398893  0.196012
-0.0512657 -0.0943153  -0.268513
-0.0455112  -0.185108  0.0225757
-0.0799837   0.339293 -0.0102738
-0.180493  0.330401  0.141682
-0.0541313   0.378904 -0.0277682
-0.233955   0.21093  0.273024
-0.194111    0.2806 -0.157863
-0.223979  0.318738    0.4278
  0.177362 0.00546627  0.0133139
 -0.024172   0.321036 -0.0295211
-0.0381909   0.311342   0.020382
-0.0799002  -0.162248 0.00690739
-0.0407025   0.251558   0.051884
 -0.053476  -0.142003 0.00181208
0.00233156   0.376608 -0.0284053
  0.194305 -0.0418316  0.0129785
 -0.144869   0.262528 -0.0836773
 -0.0837787   -0.231888 -0.00656176
-0.0760077  -0.304793 -0.0747021
-0.00946503    0.363519  -0.0267737
-0.0117249   0.344788 -0.0188454
-0.0784548   -0.17131 -0.0306136
-0.034235 -0.461935  0.097591
-0.0640571   0.307988   0.004527
 -0.0254745   -0.216646 -0.00815129
 -0.106067  -0.225031 0.00827142
-0.0766147  -0.185652 -0.0535217
-0.0646053  -0.134635   0.335347
-0.0783837  -0.178156  0.0748079
-0.114454 -0.144684 0.0285295
-0.125685  0.245009 0.0779576
 -0.104468    -0.4554 -0.0667188
-0.179007   0.13258  0.169172
-0.231782  0.402349  0.250193
-0.0512314   0.215334  -0.073601
-0.225765  0.346591  0.220649
-0.0519753  -0.276265  0.0736561
-0.0311772   0.307799 0.00295923
 0.0096037    0.31106 0.00899223
   0.172019   0.0328934 -0.00904847
-0.240037  0.342885 -0.355247
 -0.088665  -0.042392 0.00286976
-0.0853247  -0.193832  0.0332469
-0.121428 -0.111448 0.0339244
-0.223883  0.297087 -0.206881
-0.244668   0.26928 -0.341748
 -0.08191 -0.412401  0.110775
-0.0389334 -0.0870194   0.274861
-0.074917 -0.194805 0.0225718
-0.0385691   0.372261  0.0445108
 -0.113485  -0.230766 0.00750837
-0.227334  0.347907  0.225227
-0.0242743   0.289275  0.0533361
-0.0925713   -0.19255 -0.0210697
-0.0888893   0.246134 -0.0461623
-0.102689  0.283994 0.0275405
-0.197859   0.33532  0.170328
-0.0691006   0.415223  -0.035684
-0.0123428   0.291785  -0.050236
-0.0939666   0.263655 0.00674012
-0.224312  0.257075 -0.418296
-0.208767  0.448142 -0.210174
 0.236244  0.206788 0.0215487
-0.0933176  -0.438087   0.108018
 -0.125196  -0.207988 0.00212766
-0.0722475  -0.043929   0.328526
-0.0776899   0.262316 -0.0172704
-0.140403  0.307603  0.033515
-0.226211  0.172962 -0.251263
-0.0932517   -0.44069  -0.081572
 -0.0861203  -0.0188105 -0.00312879
-0.112846  0.263965 0.0124867
-0.248165  0.326044  0.335141
-0.0736799  -0.101229   0.328226
-0.128231   0.22748 -0.068159
-0.210387  0.151123  0.384101
-0.0451791  -0.195655 0.00655463
-0.0760417  -0.332023   0.127162
-0.105531  0.301869 0.0222196
  -0.0905808   -0.0662895 -0.000288695
-0.246855  0.352931  0.307556
-0.175937 0.0394462 -0.182731
 -0.123228  -0.120532 -0.0202649
 -0.0651562   -0.205899 -0.00927927
-0.0115472   0.275421  0.0758768
-0.154638  0.207458 0.0426599
   0.227253    0.112726 -0.00351667
-0.056458 -0.192179 0.0283966
 -0.085591 -0.0471352   0.053593
-0.049727 -0.451839  -0.11749
-0.240224  0.206472 -0.298987
-0.0648968   0.279008  0.0234964
-0.0769398  -0.377781   0.112661
-0.0074926  -0.216486 0.00446103
-0.0130766   0.396071 -0.0342636
 -0.118199  -0.211142 0.00369271
-0.112203 -0.159719 0.0358088
-0.0156272   0.332788  0.0438354
-0.0272037   0.327072 -0.0318962
 -0.14652  0.339122 0.0918606
-0.0577413   0.265166  0.0307875
  0.193447 -0.0333501 0.00646632
-0.0749339  -0.321198   0.123519
-0.0774532  -0.241856 -0.0696181
   0.185789    0.278733 -0.00255613
   -0.072918     0.355431 -0.000835297
 -0.124347  -0.191762 -0.0349274
 -0.0452634   -0.191033 -0.00966984
-0.0832287  -0.239965   0.032879
  -0.024839   -0.216137 -0.00749768
  -0.154932    0.207762 -0.00924297
-0.237719  0.197314 -0.305899
-0.0261428   -0.24621 -0.0335565
-0.0743924  -0.378753   0.115662
-0.0766134  0.0345453  0.0251161
-0.0621235  -0.216053 -0.0166802
 0.0500447    0.28836 0.00870804
-0.187739  0.208002  0.176434
-0.176268 0.0606354 -0.171511
-0.207434  0.248014 -0.186227
-0.0655393 -0.0923072  -0.234898
-0.0327786   0.261856  0.0581875
-0.0383923      0.249  0.0445812
-0.204675  0.107283  0.354523
-0.0536464   0.179886  0.0230131
-0.0956353  -0.157548  0.0219196
 -0.21365  0.229172 -0.200629
-0.0418444   0.252809  0.0394578
-0.0622518  -0.184936  0.0129515
-0.0785144  -0.262479 -0.0452463
-0.0176539   0.347527 -0.0204556
-0.0616633  -0.190709 0.00625125
 -0.18227 0.0132781  -0.24298
 -0.121569    0.27448 0.00976902
-0.0957875  -0.283727 -0.0691468
-0.0326458   0.255722  0.0443951
-0.219037  0.443221 -0.263303
-0.0408117  -0.476909  0.0708474
-0.0287053  -0.205709 0.00101988
-0.0454964  -0.446003   0.117458
-0.0429541   0.376919 -0.0292572
-0.236916  0.326049 -0.375759
-0.0730704  -0.404115  -0.104007
 -0.071826 -0.0556091   0.322817
 -0.109541   0.254917 -0.0324189
-0.195981 0.0472301 -0.277784
 -0.102695   0.342528 -0.0289685
-0.235926  0.338339 -0.371452
-0.182196  0.118029 -0.160014
-0.199167  0.322478 -0.156461
-0.0615356  -0.110315   0.312649
-0.0688591 -0.0798168  -0.190069
-0.180627  0.291391 -0.132813
-0.241108  0.223704 -0.282329
-0.0664989 -0.0588098  -0.219229
-0.0466619  -0.135718  -0.302667
-0.228003   0.14987 -0.296138
-0.0583492 -0.0894826  -0.277675
-0.0835666 -0.0949672 0.00813317
 -0.034179 -0.0312055  -0.280432
-0.010138  0.293908 0.0644036
 -0.076642  -0.268017 -0.0549253
-0.0433253   0.321533  0.0245303
-0.0688342   0.256141 -0.0305256
-0.049343 -0.409088  0.117557
0.00641288   0.206657  0.0146432
-0.232048  0.192305 -0.259426
-0.0802802  0.0397921  0.0110387
-0.227391  0.174678  0.368959
-0.0314714  -0.458149   0.120769
 0.244969  0.173447 0.0141037
 -0.037959  -0.266788 -0.0484549
-0.187151 0.0656668 -0.193597
  -0.03437 -0.0388367   0.290603
-0.0759978   -0.06975  -0.141961
-0.237054  0.288941 -0.241124
-0.0637865   0.304981  0.0295764
-0.0502509  -0.433367 -0.0986947
-0.0891562    -0.4662 -0.0522734
-0.0954372   -0.21058 0.00886169
-0.00513913   -0.106671   -0.268661
-0.063861 -0.194866 0.0172485
-0.146634  0.213734  0.054016
 -0.135153   0.285895 -0.0611411
-0.173986  0.311339 -0.117601
-0.121026  0.273674 0.0379846
-0.206416  0.165334 -0.382406
  0.014828   0.244117 0.00297091
-0.192032 0.0834378  0.215525
-0.0600474  -0.255001  0.0614511
-0.0732833  -0.397733     0.1167
-0.0799369  0.0228697 -0.0036473
-0.0675988 -0.0756885   0.196867
-0.0618522   0.386936  0.0462207
-0.232294  0.180704 -0.334073
-0.0246303  -0.197229  0.0275142
-0.0793084  -0.155693 -0.0167032
 0.236633  0.129989 0.0174596
-0.0826246   0.258895 -0.0243794
 0.160405  0.248446 0.0280292
-0.0895428  -0.209376 0.00875057
-0.211292  0.100446  0.326181
-0.244604  0.284801  0.371965
-0.0711064  -0.319613  0.0975304
-0.036741 -0.132278 0.0260383
  -0.090701   -0.174317 -0.00989791
-0.194607 0.0661221 -0.309316
  0.141273   0.309537 0.00703449
-0.246665  0.344733 -0.278188
-0.0428312   0.408154 -0.0369012
-0.108852   0.30883 0.0201531
 -0.150164  -0.483808 -0.0882565
-0.035949  -0.46023   0.13437
-0.0746443   0.401193  0.0484821
-0.142276  0.285541 0.0360754
-0.161579  0.192673 -0.117469
-0.0442473  -0.474435  -0.141211
  0.236137   0.206459 0.00610448
-0.0415884   0.267385 -0.0445487
0.0617887  0.327695 0.0090392
-0.241103  0.382297  0.310514
-0.200831  0.299972 -0.165613
 -0.0324003   -0.200832 0.000663936
-0.0520403   0.358432 -0.0247172
   0.022497   -0.249996 -0.00426142
   0.236876    0.131786 -0.00252781
-0.025035  0.268744 0.0624988
-0.0200623     0.2785 0.00873124
   -0.03904    0.255729 0.000307953
-0.0150644  -0.211196 0.00137975
  -0.120919    0.243839 -0.00865581
-0.0780545   0.383442  0.0424191
-0.249095  0.297785 -0.317585
-0.0749678  -0.088189  0.0133537
 -0.026389   0.322288 -0.0167559
-0.183632  0.043194  0.315196
-0.224782  0.170887 -0.352825
-0.205406  0.279845  0.193783
-0.118996  0.203747 0.0131158
-0.226681  0.350444 -0.385321
-0.242276  0.294028  0.383959
-0.0875182 -0.0899845  0.0650105
-0.069551 -0.349478  0.104092
-0.0531803  -0.153154  0.0147949
   -0.109197      0.25276 -0.000922126
-0.0656816  -0.101795  -0.296888
-0.0799137  -0.159492 -0.0490165
-0.0772292   -0.30009  0.0935126
-0.0672897 -0.0666925  -0.181115
-0.0530844   0.224203 -0.0651491
 -0.138184   0.220759 -0.0498373
2.49357e-05     0.29565  0.00871981
-0.0656317  -0.434631   -0.10594
-0.0498083  -0.176287 0.00714289
 -0.122324  -0.149037 -0.0246997
 0.220369  0.240748 0.0233453
-0.198922 0.0937367 -0.212073
-0.0419176   0.319146  0.0432221
-0.0874321  -0.202782  0.0258815
-0.201792 0.0631576 -0.281107
-0.0814689   0.401748 -0.0300723
-0.0201194 -0.0879723   0.271671
-0.0445492   0.234963  0.0868126
-0.244799  0.366254 -0.287287
-0.110351 -0.214493 -0.036613
-0.225347  0.254738  0.432987
-0.137969    0.2168 0.0945313
-0.233652  0.224912  0.265456
-0.209143  0.100513  0.261323
-0.0924488   0.401215 -0.0285072
-0.185896  0.161262   0.17838
-0.234209  0.201328  0.364125
-0.242758  0.367534 -0.259876
-0.0191853  -0.242936 -0.0296964
-0.0715027  -0.102557 0.00426279
 -0.24178  0.273966 -0.257548
-0.0518771  -0.190743 -0.0244705
-0.0183319    0.22445   0.052663
-0.0501222 -0.0753362  -0.229489
-0.235885  0.270913  0.258925
 0.00731932   -0.236247 -0.00975451
-0.0518785   0.426528  0.0554725
-0.00767629   -0.240028   0.0422481
-0.0832803   0.246756  0.0624192
 -0.0491698    0.285018 -0.00397172
-0.187443 0.0384141 -0.213877
-0.084537 -0.400537  0.103823
 0.173826 0.0393532 0.0287939
-0.242603  0.225242 -0.322535
 0.0323831 -0.0776768  -0.275351
-0.224732   0.13977 -0.278227
 0.127158  0.246963 0.0286727
-0.0255898 -0.0931218  -0.203452
-0.174601 0.0391096  0.198006
  0.197057 -0.0361884 0.00799479
0.0133334  0.395399 0.0519055
-0.0237953  -0.469928   0.098313
-0.0320555   0.303244  0.0107028
-0.213886  0.440823   0.23178
-0.0710753   0.364102  0.0361291
-0.0357116   0.310825  0.0318522
 -0.20302  0.291501 -0.170755
-0.0947907  -0.201769 -0.0236021
-0.0949024  -0.459915  -0.134049
-0.0810874  -0.300439 -0.0774655
-0.106969 -0.217742 0.0526849
 -0.0454008   -0.183882 -0.00561049
-0.0818593   -0.19854 -0.0048463
-0.0854039  -0.420326    0.10699
-0.0160078  -0.212983  0.0141318
  -0.063443   -0.204935 -0.00816368
  0.0138636    0.260141 -0.00858297
  0.016997   0.261246 0.00733363
 0.0371741 -0.0921083   0.294232
  -0.022346   -0.206675 -0.00305024
-0.0857956 -0.0205849 -0.0103699
-0.225734  0.138974 -0.284107
-0.0572495 -0.0374722   0.308938
 0.230394  0.164557 0.0336418
-0.00957485   -0.223546   0.0318969
-0.0841296   0.279399 0.00737015
-0.213544  0.412889  0.352598
-0.0661806   0.426298  0.0548985
-0.0686977  -0.189928 0.00454126
-0.198939 0.0628045 -0.299818
-0.0510526  -0.388539  -0.100208
-0.199973  0.306258   0.17886
-0.0738463  -0.309839 -0.0763385
-0.0438731 -0.0841133   0.273438
-0.0716022  -0.195377  0.0383527
  0.233634 -0.0146965 0.00619782
-0.0767319  -0.331628 -0.0917203
-0.209842  0.420497 -0.333433
-0.0781011  -0.348092   0.102018
 -0.124485  -0.465734 -0.0724261
-0.235299  0.402784 -0.290792
 -0.24773  0.317952 -0.277916
-0.0440168 -0.0821063  -0.212352
-0.048513 -0.455217    0.1392
-0.0761082  -0.223062  0.0558877
-0.150914  0.209067 0.0108636
 0.242702  0.186201 0.0033654
-0.225376  0.233661  0.241941
-0.0874243 -0.0400176 -0.0214853
   0.231233    0.123028 -0.00489576
-0.243238  0.368947  0.283323
-0.0346863  -0.198313  0.0172633
-0.0704924 -0.0928138   0.149612
-0.0707231 -0.0794044   0.198702
-0.0231543  -0.472448 -0.0760277
-0.00706421    0.320479  -0.0174101
-0.124593  0.272661 0.0361963
-0.0547758   0.247636 -0.0431388
-0.116212  0.241936 0.0711802
 -0.0882134    0.311822 -0.00317872
-0.0709894  -0.461719  -0.136715
-0.0616683   0.268306 -0.0224313
-0.0725042 -0.0812561  0.0167243
-0.0183273   0.224896 -0.0345202
 0.0144584 -0.0203898   -0.28904
-0.207611 0.0976454  0.336205
-0.0649279  -0.423369   0.116873
-0.0873477  -0.429999  -0.087455
-0.0589079 -0.0653518  -0.213667
 0.0476578   0.313781 0.00876553
-0.226772  0.374994 -0.208878
-0.183338 0.0394635  0.219381
 -0.0901078   -0.112692 6.41967e-05
-0.246288  0.299926  0.288858
-0.0754677  -0.197526  0.0148578
-0.190102 0.0590776  0.224523
 -0.066121  -0.377781 -0.0977229
-0.0881776  -0.456492 -0.0627616
-0.0386224  -0.229843 -0.0224883
-0.229242  0.289685  0.236111
   0.16597     0.2836 0.00854932
-0.21391  0.44882 0.262898
-0.0595289  -0.377208   0.116345
 -0.0741698   0.0808895 0.000125402
-0.0238354   0.299518  0.0551543
-0.0309726   0.270521  0.0549488
-0.070523 -0.344421  0.108045
-0.075042  0.126075  0.013154
-0.0481717 -0.0754178  -0.239197
-0.234471  0.182848 -0.273962
-0.0691083  -0.342314   0.107002
-0.234818  0.186752 -0.303345
 -0.125687    0.23916 -0.0141851
-0.0787948  0.0523294  0.0061172
    0.244465     0.165392 -0.000435849
 0.203073 -0.040111 0.0111734
 0.0178413  -0.232601 0.00824103
-0.0845773  -0.439859 -0.0815628
  -0.101065    0.259938 0.000176269
  0.107477    0.32005 0.00861036
-0.0291553  -0.089164  -0.221962
-0.220746  0.188835 -0.380726
 -0.0225303   -0.205026 -0.00325324
-0.0053858  -0.483317 -0.0931334
-0.209091  0.116776  -0.33782
 -0.110723  -0.236846 -0.0506342
-0.0845174  -0.217556 0.00740394
-0.0858384  -0.345287    0.11746
-0.144488  0.296057 0.0537216
-0.222322  0.404273 -0.333898
-0.0833743  -0.148169 0.00809881
-0.0394445   0.241297  0.0920431
 -0.23396  0.261458 -0.394297
-0.0445764  -0.266961 -0.0491169
  -0.12686   0.277001 -0.0509796
-0.245117  0.269778  0.362499
-0.0219097 -0.0917314      0.247
-0.0344202  -0.457181   0.111176
-0.189216  0.165828  -0.16586
 -0.122748   0.344885 -0.0483631
-0.0961422   0.239087 -0.0538521
-0.182827  0.102885  0.186957
0.00636697   -0.22586 0.00961498
   -0.1644   0.357914 -0.0982395
  -0.130551    0.245967 0.000482917
-0.192925  0.288841  0.172642
0.00666566  -0.201573 -0.0266682
-0.212586  0.425917  0.331657
-0.208271  0.138469 -0.359147
-0.0769427  0.0850747    0.01124
-0.0214502   0.326406  0.0439519
  0.16595  0.289054 0.0047369
-0.229809  0.407078 -0.229014
-0.0916276  -0.096761  0.0104257
-0.231806  0.315567  0.413611
-0.230241  0.328936  0.410494
 0.00339556   -0.214443 -0.00367432
-0.187449 0.0328109 -0.275757
-0.044045  0.339914 0.0324205
-0.0738476   0.264534 0.00858783
-0.0768064  0.0753554  0.0056676
-0.185207  0.028597  0.289789
-0.0302199   0.292706 0.00868004
  -0.129172    0.291972 -0.00857412
-0.229505  0.320323 -0.398487
-0.0112999  -0.215736 0.00771473
 -0.125839   0.254884 -0.0576894
-0.241134  0.225948  0.297545
-0.0860077 -0.0929112  0.0808475
 0.147705  0.242303 0.0338335
-0.232252  0.323448  0.238953
-0.0799633   0.230311 -0.0621117
  0.17137 0.0150849 0.0198038
0.00940844  -0.104237  -0.269317
  0.208621 -0.0401264  0.0129799
-0.241361  0.341084  0.368076
-0.0829149  -0.116472  0.0685356
-0.205118  0.101639  0.349617
-0.218807  0.436607  0.293978
 -0.19764 0.0671461  0.325024
-0.0527546  -0.105071  -0.280716
-0.0346652  -0.464769   0.139497
 -0.146958   0.228348 -0.0943868
 -0.121567   0.242881 -0.0170842
-0.224166  0.322939  0.423439
 0.229678  0.217769 0.0188813
-0.212209  0.100704  0.271511
0.00234712   0.379371   0.048788
 -0.106605  -0.180144 -0.0268063
 0.0380342 -0.0876501  -0.276597
   0.242831    0.206968 -0.00584155
-0.226781  0.285942  0.431619
-0.0994889  -0.250303 -0.0508679
-0.216921  0.288351  0.212144
-0.237157   0.37931   0.34336
-0.195811 0.0533417  0.307343
 0.031258 -0.125913  0.299124
-0.197779 0.0541807 -0.288331
-0.241923  0.281168 -0.259443
-0.237555  0.199009  0.310258
-0.0215501   0.266819  0.0717119
-0.00911317   -0.122585    0.297965
 -0.0837393 -0.00109881 -0.00278152
-0.0459974   0.230363   0.086119
 -0.027072    0.28124 -0.0358091
-0.225654   0.22876 -0.226819
-0.227091  0.213197  0.403817
 -0.0733899    0.172861 -0.00143641
 -0.1944 0.427144 0.178915
-0.0836019  -0.463059  0.0739664
-0.095397  0.262471 0.0107243
-0.0681552 -0.0608565  -0.295848
-0.0299416   0.280643  0.0513676
 -0.24134  0.324743 -0.361438
0.00295696   0.369898  0.0454376
-0.0398685   0.418645  0.0564705
 -0.0719735   -0.192544 0.000369582
 0.151843  0.244606 0.0314227
-0.223482  0.432519  0.287189
-0.210732 0.0907863  0.282694
-0.0344789   0.255375 -0.0439678
 -0.0804138   0.0266989 8.44097e-05
-0.239753  0.291373  0.265865
-0.0616971   0.411313 -0.0354247
-0.230194  0.189975    -0.355
-0.242451  0.375339  -0.26894
0.00513427   0.208925  0.0389526
-0.059438  0.413085 0.0538022
-0.0875582 -0.0361525 0.00901092
-0.0146668  -0.186558  -0.022086
-0.186546  0.220552 -0.156035
  0.187376 -0.0298331  0.0134228
 -0.126154   0.250909 -0.0597748
-0.174593  0.223297 -0.136996
 -0.0781913  -0.0511111 -0.00341673
-0.193899  0.245198  0.181916
-0.220083  0.150164 -0.242713
-0.217231  0.245107 -0.204189
-0.237945  0.395323 -0.272296
-0.221393   0.39051 -0.353958
-0.0866029  -0.415495 -0.0858915
  -0.116929    0.333217 -0.00826046
 -0.060442 -0.0788667   0.298137
-0.247478  0.318022  0.294457
 0.24046 0.195272 0.004417
-0.0575514   0.260884  0.0386041
-0.237438  0.358262  0.364831
-0.0614478 -0.0622484    0.21789
-0.0202902 -0.0862221   0.273371
-0.0878717   0.288141 0.00511829
-0.0850873   0.386121  0.0435146
-0.0209696  -0.203222  0.0249053
0.014381 0.336955 0.025759
-0.082324   -0.1979 0.0164137
-0.0406091   0.313485  0.0216929
  -0.0682017    -0.194398 -0.000627348
-0.0896426  0.0475013   0.025557
-0.0764205  0.0893582  0.0121583
 -0.00958131     0.318618 -0.000198555
0.00376742   0.325044  0.0194048
-0.0296497  -0.199334    0.01283
-0.0975591   -0.17011  -0.012423
0.0644687  0.335097 0.0133914
0.0206691  0.355619 0.0353758
-0.0806833 -0.0882139   0.119104
-0.15904 0.300772 0.113056
-0.0408173   0.383479 -0.0303397
-0.0939915   0.380872  0.0411852
-0.0365387   0.363484 -0.0240711
-0.0721361   0.397809  0.0477423
  -0.101675    0.328548 -0.00743542
  0.121345   0.318858 0.00910098
   0.02367  -0.245277 0.00671329
-0.0692785  -0.057002   0.316867
-0.227399  0.266612 -0.413726
-0.0344251 -0.0522835   0.278735
-0.0358932  -0.200431  0.0103494
-0.233302  0.308115 -0.394465
-0.0770534  -0.272068 -0.0829265
-0.0774997 -0.0873818   -0.12376
-0.00746619  -0.0923442   -0.260638
-0.0638021 -0.0749862  -0.190834
-0.0373715 -0.0699087  -0.251993
    0.20599   0.0861992 -0.00759531
-0.100753  0.358314 0.0528289
-0.213921  0.346293  -0.17948
-0.0560704   0.427884 -0.0389478
-0.125391  0.355494 0.0301246
-0.0743437  -0.373775 -0.0992244
-0.0545974   -0.18853 0.00862955
 0.216199  0.248067 0.0224323
-0.0700648   0.296137 0.00163005
-0.0534895   -0.40637 -0.0992298
-0.00750316  -0.0943329    0.277061
-0.086994 -0.249275 0.0648316
-0.223163  0.356908  0.403047
-0.0143659  -0.479088  0.0980421
-0.0115652   0.408235  0.0595421
-0.00256961   -0.196243    0.043157
-0.0721462   0.387847  0.0300428
-0.0370822   0.265192 -0.0323411
 -0.0558836    0.268856 -0.00611676
-0.207287 0.0892974 -0.311667
0.0122355 -0.128054 -0.282776
  0.230317   0.218628 0.00798581
-0.102734 -0.197207  0.048313
   0.213018    0.244171 0.000237341
  0.0347786   -0.196596 -0.00169748
0.238573 0.181718 0.024006
-0.0160452  -0.195344  0.0325376
-0.243845  0.256733  0.357946
-0.000674239     0.269403   0.00885959
-0.175298 0.0393694 -0.180187
-0.230519  0.405375 -0.311711
-0.241108  0.251374 -0.265872
-0.0555996 -0.0912325  -0.142599
 -0.080819    0.28603 0.00887512
-0.21982 0.436759  0.28012
-0.0799115  -0.160413 -0.0487842
 -0.133287  -0.470999 -0.0793729
 -0.06309  0.378703 0.0435405
-0.0118036  -0.108268   0.288014
-0.218135  0.172318 -0.373297
 -0.101996   0.266351 -0.0189237
-0.0811202  -0.187606  0.0378233
-0.187852 0.0367851  0.299561
-0.245326  0.273254 -0.278374
-0.0897588 -0.0665567   0.141605
 -0.144188   0.250004 -0.0863146
-0.0835676  -0.103163   0.144117
-0.225049  0.267692 -0.419424
-0.0172519 -0.0387684  -0.272258
-0.120833  0.218474 0.0936759
-0.110378  0.296744 0.0400265
   0.19173 -0.0286049 0.00953269
-0.246591   0.26651 -0.288606
0.00942811  -0.211611 -0.0312118
 0.187587 0.0652208 0.0289159
 0.180037  0.278713 0.0156572
-0.00978716   -0.217103  0.00532807
-0.216854  0.126018 -0.249485
-0.0920585 -0.0780216 0.00186334
  -0.100599    0.297193 -0.00178392
 0.0168701 -0.0308097   0.301713
-0.0938096   0.219138 -0.0713593
  0.0029646    0.194918 -0.00578695
-0.0818209    0.40126  0.0470801
 -0.10673 -0.168673 -0.018843
 -0.0850242 -0.00848349   0.0177412
-0.0623895   0.370253  0.0405587
-0.191777  0.035618 -0.254939
-0.0822939  -0.078535     0.1108
-0.0238592  -0.139525  0.0295353
-0.232544  0.251961 -0.395931
-0.055121  0.413947 0.0542592
-0.0877683 -0.0740348 0.00882217
-0.0885867 -0.0708153 -0.0352647
 -0.155192   0.192485 -0.0866262
 -0.135815   0.224626 -0.0763872
 0.0565132   0.337134 0.00123964
 0.248875  0.161393 0.0160175
-0.0320813   0.410076   0.054763
-0.0932207  -0.253997 0.00511333
 0.241896  0.143317 0.0184816
-0.000643709     0.339569     0.034764
-0.176094  0.217917 -0.139438
-0.188577  0.295883  0.162707
-0.0633172   -0.30389 -0.0711616
-0.207323  0.453137 -0.267882
-0.111625 -0.179242 0.0472967
-0.0649092   0.409979  0.0524476
-0.0727475  -0.371749 -0.0966699
-0.0429671   0.297567   0.024099
-0.0664605   0.257113   0.046368
-0.0326661   0.424756 -0.0398278
 -0.143355  -0.485404 -0.0613089
    0.219162     0.243554 -0.000818651
0.00854898   0.204342 0.00101515
-0.195534  0.153998 -0.179983
-0.0866506  -0.106951  0.0580555
-0.160637  0.183133 -0.116621
-0.0611091 -0.0717932    0.22188
-0.0671425 -0.0622917   0.221237
-0.230627  0.298875 -0.404682
-0.0749105  -0.229506 -0.0295697
-0.0887552 -0.0898629 -0.0369583
 0.245489  0.157111 0.0057409
-0.0659155   0.151972 0.00480968
-0.190171  0.392557   0.15744
-0.183263 0.0907511  0.192262
-0.0225915   0.335041 -0.0148254
 -0.24506  0.290783 -0.267176
-0.124448 -0.165325 -0.022541
-0.0757864  -0.243886 -0.0406872
-0.0482537  -0.202751  0.0201951
-0.0294074   -0.20429  0.0144613
-0.238145  0.305022  0.397672
 -0.103005   0.261798 -0.0210866
  -0.06913 -0.0895175  -0.216319
-0.0925104   0.279222  0.0193429
-0.0415478   0.259163  0.0488952
   0.210195   0.0957662 -0.00957259
-0.116394  -0.10491 -0.011807
-0.0309012   0.246751  -0.055246
-0.0664394  -0.193345  0.0440134
-0.0449252 -0.0342666  -0.282078
-0.0609521  -0.421034   0.113502
0.00245566  -0.201931 -0.0282142
-0.0823154  -0.481451 -0.0368631
-0.215067  0.428628 -0.305454
-0.0765993   -0.20751 -0.0275787
-0.203246 0.0935761 -0.325432
-0.0503808 -0.0707395   0.276584
-0.0667859  -0.197552 -0.0318314
-0.134484 -0.472811  0.142054
  0.189072 0.00966907  0.0116857
 0.214881  0.239754 0.0113389
-0.188095  0.227928  -0.15696
 0.140995   0.25599 0.0198046
-0.0916686   0.393585  0.0548599
-0.0381396   0.237657 -0.0810733
-0.186883  0.025447  0.280921
 -0.19518  0.186997 -0.172792
-0.230642  0.369294 -0.216813
-0.0796786  0.0410505 0.00527117
-0.228706  0.208564   0.39431
-0.220313  0.150045 -0.341665
-0.0185327  -0.196858 0.00350028
-0.224718  0.365207 -0.375679
-0.0996242  -0.181383  0.0386963
-0.121907 -0.459304 -0.110796
 -0.084987 -0.0852532 0.00756385
-0.0547244  -0.231822  0.0446827
-0.0635584   0.257359   0.055247
-0.0778277  -0.178236 -0.0339362
 -0.081837  -0.235131 -0.0180584
 -0.0661365    0.273498 -0.00336424
  0.116268   0.265496 0.00908009
  0.0368269    0.348842 -0.00958173
-0.0721313  -0.123555  -0.320317
 -0.112242  -0.108401 0.00446314
-0.0373738   0.280573 -0.0232037
  0.200238   0.253443 0.00943285
 -0.046512   0.285144 0.00876149
 0.0836685    0.23732 -0.0147052
  -0.03428   0.280805 -0.0194443
-0.229781  0.415258 -0.287899
-0.0957069   0.369353 -0.0199455
-0.0718877  -0.190464 0.00231469
-0.0402405 -0.0895425   0.209271
-0.0631162   0.311716   0.045074
-0.0429702   0.258172 -0.0306087
-0.0541021    0.24752 -0.0430945
-0.0295217   0.242828   0.098247
-0.041845 -0.179325 0.0162112
-0.00763998    0.224709    0.011489
  0.167433   0.281966 0.00923512
-0.0506048 -0.0620961  -0.234139
-0.118064  0.285667 0.0524409
-0.0479353   -0.19725 0.00218587
-0.0855228   0.345231  0.0336957
-0.212122  0.418995 -0.190491
 0.230003  0.218126 0.0126543
-0.0468697 -0.0618345  -0.243348
-0.0760008  -0.353734 -0.0908509
-0.0996712  -0.213492 -0.0292294
-0.239456  0.207177   0.33563
-0.0605931   0.240967  -0.080425
-0.213609  0.111611  0.335257
-0.0544461   0.406243  0.0526764
-0.224341  0.396364  0.358711
-0.0349815  -0.482304  0.0660257
-0.0572515  -0.088598   0.294143
-0.22805  0.38762 0.362066
-0.0493237 -0.0650467  -0.241145
-0.102667 -0.213038  0.048307
 -0.113088   0.231186 -0.0713522
0.0208928  0.351339 -0.014993
 -0.175963 0.00980528  -0.204305
-0.0451446  -0.124181   0.310618
-0.0122909 -0.0941276   0.254432
-0.248085  0.302678 -0.284531
-0.0795982  -0.404153    0.11308
-0.0770892  -0.177335 -0.0117947
  -0.1366  0.227503 0.0383483
-0.0727965  0.0511405  0.0237911
-0.0767346   -0.30958 -0.0864338
-0.174144  0.304648  0.137168
-0.209718  0.118279  0.248727
-0.0873712  -0.144816  0.0125785
-0.129371 -0.471942 -0.132598
-0.107016   0.24385 0.0685408
-0.00933334    0.254232  -0.0706742
-0.0139968  -0.132153   0.306714
-0.246258   0.33508 -0.268202
-0.228118  0.302207  0.231913
-0.236056  0.381695 -0.236571
 -0.0913286    0.295646 0.000646986
-0.194933  0.420495  0.178117
-0.0702457   0.269912  0.0195317
-0.0576614   0.257169   0.045628
 -0.0655431    0.327752 -0.00457163
-0.00489699   -0.234673  -0.0175864
-0.0844461   0.381401  -0.044428
-0.206189  0.204834  0.210051
 -0.0854684   -0.199805 0.000913529
  -0.08052  -0.154344 -0.0717279
-0.104267 -0.226784 0.0551723
0.0200873  0.362322 0.0389371
-0.228157  0.296071 -0.411022
-0.185266  0.282757  0.159503
 -0.121114   0.243309 -0.0170376
-0.157759  0.205114 0.0336209
 -0.135928   0.325896 -0.0582878
-0.0409864  -0.475687   0.157606
0.0079926 -0.105166  -0.26924
-0.00917373   -0.219663  0.00122481
-0.0432645  -0.479615  -0.145021
-0.0737874   0.222335  0.0889163
0.00205635   0.362723  0.0428808
-0.0710578  -0.182214 0.00506272
 -0.119295   0.273966 -0.0134478
-0.184001  0.114254  0.182128
 0.231138  0.216644 0.0100524
-0.0987363  -0.218217 -0.0314367
-0.0478891  -0.283027  0.0781099
-0.238536  0.334039  0.254428
-0.234479  0.378927  0.248957
-0.053631  0.366049 -0.022992
-0.0986311   0.248193  -0.043415
 -0.20583  0.146824 -0.368064
-0.181253 0.0664823  0.196853
-0.109124 -0.448783  0.112333
0.000353468   -0.231483   0.0244508
 -0.140135   0.220884 0.00284058
0.0177975 -0.102663  0.288892
-0.0737821 -0.0733277   0.166664
  0.0447675    0.250288 -0.00286772
-0.0810674 -0.0942981  -0.191115
-0.128651  0.231017 0.0720484
-0.0748739  -0.461945  -0.136555
-0.238818  0.224116 -0.348335
 0.0171007 -0.0784065  -0.270787
-0.0717977  -0.187975 0.00387015
-0.105063 -0.204387 0.0493207
 0.192811  0.258859 0.0106282
-0.0715743  -0.334373 -0.0867672
 -0.099985  -0.209448 -0.0283243
 -0.106817  -0.210646 0.00943096
-0.0762152  -0.300368 -0.0703486
-0.227969  0.424208  0.283491
-0.00118765  -0.0743356    0.282166
 -0.135278   0.305764 -0.0142171
-0.0625823  -0.414101   -0.10015
-0.210353  0.450512 -0.226609
-0.0816211 -0.0689229  -0.320777
-0.227793  0.190039  0.260672
-0.180979 0.0119307  0.256008
-0.0253163   0.322437 -0.0125884
 0.0373317  -0.247193 0.00956382
-0.0393447 -0.0879257   0.217021
 -0.131869  -0.174142 -0.0461118
-0.207754  0.111174 -0.229795
-0.0716676   0.242091   0.083632
-0.0829651   -0.38506 -0.0843529
-0.0509722  -0.459165 -0.0702582
  0.235706 -0.0414626  0.0259099
-0.210404  0.429511 -0.193344
 -0.068113 -0.0713932   0.194847
-0.0307037   0.258766 -0.0444481
-0.0735562  -0.067691   0.180799
-0.235131  0.372468 -0.343287
-0.0883113  -0.467547   -0.14088
-0.244248  0.250308  0.298828
-0.0825009   0.402558  0.0440131
   0.2133 0.0867488 0.0111262
-0.228883  0.413548  0.247865
-0.196885 0.0843706  0.341813
-0.0458655   0.425212  -0.039681
-0.0715023  -0.404112    0.11696
-0.0220975    0.36521 -0.0392124
 -0.0346507    0.267911 5.97924e-05
-0.0728835  -0.089947  -0.207901
-0.0737204  -0.233461 -0.0653607
-0.0414021   0.305474  0.0233003
  0.177001    0.27751 0.00468919
 -0.24861  0.284528 -0.301265
-0.0651624   0.340805 -0.0106648
-0.0122971   0.319502  0.0193098
-0.0994141  -0.242195  0.0634028
-0.0716707   0.244574  -0.048474
-0.246465  0.353295   0.32021
0.00983375  -0.222587  0.0144516
   0.206497    0.244355 0.000744612
-0.221729  0.254729  0.228501
-0.177807 0.0068658  0.237921
-0.229249   0.17116 -0.336748
 -0.028392   0.277768 0.00882372
-0.0829138  0.0133722  0.0041895
-0.240017  0.286438 -0.376724
-0.0480288  -0.042284  -0.277598
-0.115276  0.247152 0.0176207
-0.0781109  -0.180712  0.0477842
-0.00676965   -0.238172   0.0394734
-0.0490112 -0.0689165   0.257954
  0.191953   0.266751 0.00171389
  0.131195   0.313866 0.00907969
-0.125879 -0.465021 -0.121141
-0.0798568  -0.366529 -0.0857981
-0.153078  0.198936 -0.103974
-0.0696694   -0.07647   -0.16674
-0.0787517  -0.416618 -0.0987997
-0.000286913     0.391005   -0.0339651
-0.0179622  -0.212226  0.0216907
-0.192646 0.0433849 -0.282868
-0.232081  0.243554 -0.237678
-0.242121  0.223735  0.311265
-0.072292 -0.450903 -0.070804
-0.0820451  -0.464059  -0.139261
-0.114234 -0.106075 -0.010059
-0.0917184  -0.201971  0.0285623
-0.208654  0.415903  0.352555
-0.0329869   0.341359  0.0508597
-0.0850057 -0.0520844  0.0796091
-0.0723799   0.309095  0.0489572
-0.0139967   0.264724  0.0128078
-0.215159  0.270045  0.213794
 -0.100822  -0.167771 0.00674781
-0.0407621  -0.045493   -0.26888
-0.146803  0.280198 0.0654407
-0.0525454   -0.16852 0.00749939
-0.222951  0.433588 -0.255268
-0.100153 -0.442079  0.115449
-0.117337 -0.204738 0.0672051
-0.210342 0.0921916  0.318715
 -0.101827   0.334512 -0.0129605
 -0.22033  0.194214 -0.387926
 -0.17794 0.0478381 -0.181164
-0.0946966  -0.253109 -0.0509987
  -0.11879   0.342497 -0.0108607
-0.0433625 -0.0523978  -0.263252
  -0.089842    0.306079 -0.00200299
-0.162272  0.334732  0.112467
-0.0308319   0.321447  0.0286055
 -0.0804371     0.27325 -0.00527223
 0.230724  0.116691 0.0154121
 -0.0955679    0.287017 -0.00284686
    0.219763     0.235403 -0.000964408
-0.223471  0.198133 -0.382957
 -0.111659 -0.0846124 -0.0069633
-0.24103 0.246282 0.369847
-0.0115814  -0.210602  0.0285247
  0.130095   0.274351 0.00928157
-0.0203793  -0.140538  -0.296234
-0.0195655   0.336408 -0.0206089
-0.215484  0.131158  0.356835
-0.0903101 -0.0602306  0.0136102
-0.0610605  -0.323658  0.0995775
-0.192856  0.123168  0.200396
-0.239074  0.205275  0.317551
-0.0569077  -0.106373   0.303734
-0.0851915   0.283578  0.0104676
 0.203986  0.250244 0.0080902
-0.0852099 -0.0099642  0.0175372
-0.226653   0.40024 -0.329792
-0.0603949   0.444871  0.0581473
 0.109896  0.336563 0.0090469
 0.0324301  -0.249272 0.00849708
 -0.24367  0.369773 -0.302573
-0.0545556 -0.0784834   0.248646
-0.0983686  -0.207838 -0.0160558
-0.0766186  0.0682794 0.00371239
   0.180691 -0.00620192  0.00655288
-0.0262756   0.369225  0.0459775
0.0072441 -0.136051 -0.287553
-0.0803271  -0.335068   0.112384
  0.234014    0.21112 0.00766574
-0.148426  0.312958 0.0944477
 -0.0931264    0.278489 -0.00257773
 -0.017106   0.270345 -0.0227649
 -0.075091   0.102908 0.00376272
-0.0871426  -0.108946 -0.0286678
-0.0757989    0.38659  0.0435508
 0.208224  0.259461 0.0247709
-0.232723  0.399859   0.25121
-0.215533  0.145959  0.370738
-0.21054  0.11104 0.257938
-0.0260281   0.306704 -0.0156854
-0.0702734   0.252362   0.054715
 -0.0428018    0.318854 -0.00608242
 -0.0654121  -0.0702689 -0.00525419
-0.0916941  -0.095303  0.0221216
-0.0678512  -0.420991 -0.0995864
 0.177244  0.046941 0.0285482
-0.233373  0.352049 -0.221572
-0.0416155 -0.0903305   0.192213
 0.182167 0.0316948 0.0148276
 -0.11564 -0.174233 -0.031827
   0.225551    0.207802 -0.00960807
 0.142599  0.310121 0.0108538
   0.162271    0.250749 -0.00762063
 -0.101051  -0.484376 -0.0334384
-0.0856546   0.385942  0.0518325
-0.115163  0.319268 0.0240779
 -0.124925   0.312137 -0.0241522
-0.060589 -0.449278  0.094647
-0.0770852  -0.313149  0.0915343
-0.0683911   0.415031  0.0531387
-0.196054  0.327655  0.167378
-0.0619292  -0.133834   -0.31156
-0.22507 0.289208 0.432215
-0.113934 -0.165814 0.0150867
-0.0516418 -0.0757028  -0.261566
-0.0816105  -0.384987 -0.0867681
-0.0769304 -0.0726814  -0.128222
  0.141014   0.306631 0.00871958
-0.171907     0.256  0.145436
-0.211645  0.439796 -0.206202
-0.0775752 -0.0899951  -0.139426
-0.230536  0.417983   -0.2637
 0.231109  0.119284 0.0190656
-0.0262639   0.266681 -0.0509755
 0.231768   0.11705 0.0123193
 -0.0739768    0.264052 -0.00492691
-0.0278554   -0.48269  -0.058051
-0.0800232   -0.20061  0.0301782
-0.0259196   0.291951  0.0540358
-0.237421  0.386864 -0.246417
-0.0550236   0.272448  0.0119028
-0.230782  0.229871 -0.387366
-0.0657573  -0.331869    0.10252
-0.115241 -0.459174 -0.124601
-0.216279  0.115418 -0.308608
 -0.130792   0.302116 -0.0124802
-0.0862939 -0.0702578  0.0118437
 -0.20676  0.419496 -0.179966
-0.113889  0.329249 0.0520723
-0.243565   0.26422 -0.270586
-0.0678012   0.293989  0.0088455
 -0.127497   0.236688 -0.0224397
-0.222583  0.186798 -0.230046
-0.24859 0.317675 0.314011
-0.0580832 -0.0787287  -0.221869
-0.218566  0.388235  0.206117
 -0.18972  0.304814 -0.145834
-0.123755 -0.460258  0.125087
-0.0713066   0.392141 -0.0231598
-0.0483305  -0.071114  -0.241119
-0.00282582  -0.0894942   -0.262713
-0.0328434  -0.198177 -0.0266418
-0.00188679    0.250299  0.00947396
-0.213709  0.408185  0.361019
-0.0858263   -0.19978 0.00543251
-0.0845929 -0.0771441   0.099014
-0.0724861  -0.304772  0.0908586
-0.0617666 -0.0568047   0.302407
-0.0694798  -0.112359 0.00500131
-0.120753   0.21712 0.0993315
-0.0619535   0.377761 -0.0259812
 -0.101055  -0.202172 0.00849269
 -0.054474 -0.0824546   0.210619
-0.219391  0.434284 -0.281713
-0.07173 -0.36577 0.113399
-0.0209406  -0.197123  0.0287785
-0.224971  0.276474 -0.419115
-0.0830958   0.398455  0.0465742
-0.00149524    0.333772    0.048148
-0.0464797   0.411828 -0.0372719
-0.0635699   0.418923  0.0563614
-0.0462453  -0.274868  0.0718158
-0.0701693   0.299702 -0.0317439
-0.0612444  -0.418359   0.117108
-0.0766754  -0.321611   0.113644
-0.24865 0.295384 0.337545
-0.0647355  -0.436757   0.109131
-0.0627947   0.276026 0.00859317
-0.0433635 -0.0212283   0.313204
-0.00306274  -0.0967478    0.281276
  0.197888 -0.0399824  0.0120916
-0.221169  0.281325  0.223146
-0.0611638   0.290385 0.00877418
-0.0164136  -0.473141  -0.101024
-0.0318446  -0.195959  0.0211466
-0.197501  0.105911   0.22074
-0.226088  0.389381 -0.346721
-0.060169  0.354443 0.0593303
-0.0369184  -0.115691  -0.281451
-0.0515171 -0.0781755  -0.213277
   -0.0938  -0.419811 -0.0808563
-0.201659  0.277028 -0.170399
-0.207181  0.399635  0.186906
-0.223902   0.13598 -0.291766
   -0.14897    0.199174 -0.00341136
-0.231668  0.271547 -0.232294
  -0.101367  -0.0701819 0.000544678
  0.020188  -0.253773 0.00399527
-0.0778545  -0.083213  0.0101064
  -0.0735181      0.32314 -0.000702331
 -0.126189   0.232232 -0.0632911
-0.234864  0.263576  0.408767
-0.241557  0.337726   0.26442
-0.0631999   0.306989   0.012716
-0.0603865  -0.260216  0.0649981
-0.00728822   -0.214979   0.0151116
-0.00911745  -0.0601738   -0.265372
 -0.17616 0.0768868 -0.165683
