-0.104145  0.254126 0.0088658
-0.182628  0.247095  0.163624
-0.101621 -0.165013 0.0299991
-0.175068  0.132974  0.161281
-0.0624174  -0.460101  -0.132893
-0.0487007  -0.064153   0.258261
-0.150111  0.250248  0.112613
-0.203825  0.370958  0.176703
-0.214024  0.337879 -0.181334
-0.0728904  -0.361186  -0.095578
-0.175806  0.081006 -0.163842
-0.0334883   -0.20172 0.00366462
-0.247327  0.342492  0.311908
-0.246993   0.33492  0.348769
-0.212721  0.098482 -0.295894
-0.0273704 -0.0702094   0.273709
 -0.138262  -0.473447 -0.0947841
0.00275759  -0.113111  -0.274101
-0.0802543  -0.339893 -0.0967598
-0.0456164   0.257687  -0.017677
-0.234008  0.317568 -0.390036
-0.204437  0.391845 -0.160318
-0.0576275   -0.10675  -0.287031
-0.187632 0.0266857 -0.244433
-0.0832976  -0.407902   0.107528
 0.221486  0.121382 0.0334787
-0.239051  0.194734  -0.31538
-0.0680127  -0.369122   0.113581
-0.0862907 -0.0259898   0.024756
-0.0857015  -0.199037  0.0145797
-0.0635532 -0.0648713  -0.198773
-0.0357147  -0.467386    0.14587
-0.0814252  -0.423086 -0.0960938
-0.0827347  -0.389292   0.120958
-0.242399  0.267015  0.280986
-0.242061  0.236721  -0.33998
-0.188347    0.1161  0.192406
  -0.117244    0.304557 -0.00738486
-0.0467844   0.256654 -0.0292753
-0.0841587  -0.161477 0.00277468
-0.0512992    0.25428  0.0505065
-0.0123023  -0.216071 0.00367108
-0.0718436  -0.191444  0.0161196
-0.0832368  -0.481931  -0.151661
-0.24046 0.377118 -0.31651
  0.240824   0.137112 0.00306764
-0.0511446   0.255421  0.0490534
-0.10745 0.297628 0.011017
0.0749939  0.246677 0.0239381
0.0251295  0.328298 0.0175189
0.0760681  0.330368 0.0102024
 0.184965  0.274205 0.0144675
-0.219308  0.351643 -0.191485
-0.123919 -0.469909 0.0811346
-0.105063 -0.222044 0.0534679
-0.0787248   0.119211 0.00724109
-0.246956   0.26873  0.332174
-0.194763    0.1901  0.189999
-0.185268 0.0235052  0.272269
 -0.128382   0.265209 -0.0584569
   0.199589 -0.00916577  0.00969148
-0.0623628  -0.134631 0.00442346
-0.231984  0.202343 -0.257414
-0.0558395 -0.0633207   0.236012
0.00350291  -0.019236  -0.283707
-0.0652491   -0.42491 -0.0992524
-0.0696783  -0.115685 0.00516296
 -0.0739349   -0.200302 -0.00694811
 -0.100677  -0.442351 -0.0973148
-0.0698018   0.408558 -0.0346454
-0.075932 -0.195526 0.0317763
 -0.20313   0.13634 -0.361795
 -0.148499   0.204747 -0.0768559
-0.0954639   -0.44875  0.0894155
  0.195026 -0.0361973 0.00845755
-0.0956461 -0.0740803 0.00351956
 0.0232775  -0.237916 0.00808091
-0.0564239   0.249833 -0.0402723
-0.191024  0.138453  0.192308
-0.195549 0.0463291 -0.278632
 0.244198   0.14874 0.0110411
0.00103694  -0.225956  0.0120184
-0.0488501 -0.0782126   0.239634
-0.0766384  -0.342498 -0.0928051
-0.159949  0.258728 -0.107605
-0.0765026    0.38923 -0.0265328
-0.212819  0.441486 -0.302019
 -0.066827 -0.0660841   0.211879
-0.0277472  -0.132616  -0.292351
-0.203971  0.145848  0.217235
-0.0828396  -0.269823 -0.0579765
-0.0784261   -0.15192  0.0438333
-0.0511742   0.269728   0.028002
-0.114297  0.250936 0.0389997
-0.0855253  -0.419343   0.107944
-0.150744  0.260809  0.110601
-0.249944  0.308705 -0.309479
-0.0529433 -0.0649985   0.249246
-0.187876  0.310578 -0.139961
 -0.128224  -0.465649 -0.0912562
-0.0895828  -0.365014   0.122154
-0.00479746    0.212353  -0.0225709
 -0.0933671    0.278822 -0.00272728
-0.0671503  -0.090656   -0.22621
   0.24236   0.143843 0.00206911
0.0349387  0.327803 0.0125957
 -0.135339   0.230283 -0.0139057
-0.246658  0.273749  0.315589
-0.246171  0.326556  0.349191
-0.234745  0.340846 -0.375554
-0.0869947  -0.430938  -0.101675
-0.0370178   0.257772 -0.0366809
-0.238572  0.248097 -0.257468
 -0.058442 -0.0763104   0.217215
-0.193274  0.425816 -0.158994
-0.0929612  -0.134523 0.00215738
-0.0626703  -0.109701   0.314019
 -0.119748 -0.0963079 -0.0123371
-0.236608   0.36349 -0.348512
-0.0316696 -0.0992607   0.283821
-0.0502169  -0.230068   0.042713
  0.181414   0.242581 -0.0107701
-0.0915553  -0.428605   0.101963
 -0.113581 -0.0745696  0.0268082
-0.0100944  -0.216493  0.0116127
 0.0181186   0.356001 -0.0198687
-0.105679  0.306745 0.0355191
-0.0680275  -0.370945   0.113914
-0.240031  0.282549 -0.378752
-0.0633971  -0.191271  0.0129073
  -0.2325  0.341366 -0.379633
-0.231602  0.281421  0.422766
-0.0855554 -0.0418859 -0.0306471
-0.227999  0.367387  0.381696
-0.057908 -0.436266   0.11991
 -0.120622   0.293693 -0.0367614
-0.219491  0.387918  0.375611
-0.234949  0.365158 -0.230184
-0.096078 -0.396194 -0.108286
-0.240613  0.285328  0.387439
-0.0718122 -0.0671051   0.162148
-0.0928709  -0.398936  -0.107406
-0.0864977  -0.208757 0.00852856
-0.218558  0.121716  0.340254
-0.247137  0.278652 -0.325163
 -0.0384487    0.319313 -0.00715985
-0.0799891  0.0381925  0.0131943
-0.0825571 -0.0683109  -0.320753
-0.020492 -0.211721 0.0188004
-0.0761197  -0.347528   0.111021
 -0.088036  -0.435745 -0.0872558
-0.0746727 -0.0706398   0.158125
-0.0553961   0.243663 -0.0456381
-0.00320544   -0.223923     0.01729
 -0.0506974    0.270732 -0.00978694
-0.180136  0.153575 -0.150146
 0.229372  0.154689 0.0333687
  -0.098433   -0.109969 0.000976146
-0.0986797  -0.200305  0.0456587
-0.245637  0.349197  0.292389
-0.0665575 -0.0897724   -0.22426
-0.233788  0.192201  0.285175
-0.0965139  -0.100221  0.0145436
 -0.0381883   -0.194627 0.000163448
-0.236577  0.376482 -0.231611
-0.0604101  -0.205784  0.0259892
-0.0722655  -0.281895   0.078768
-0.221946  0.419764  0.232493
0.0085816 -0.233181 0.0135846
-0.23983 0.385973 0.300123
 -0.077145  -0.258924 -0.0641515
  0.0125056   -0.239101 0.000724659
-0.220152  0.364767 -0.380808
-0.0286309   0.274155  0.0551024
-0.076776 -0.185456 0.0542214
 -0.05872 -0.079069  -0.17935
 -0.19785 0.0614004   0.31613
-0.208425 0.0845199  0.301905
 -0.18896 0.0362279  0.294285
-0.0772201  0.0473522  0.0166316
-0.230426  0.287891  -0.41195
-0.0664214  -0.320726 -0.0800382
-0.020453 -0.229007 0.0343638
-0.0746988 -0.0865386  -0.188136
 0.0669199   0.326331 0.00883667
 -0.112866  -0.112917 -0.0103038
-0.245257  0.344259  0.344068
-0.00456494   -0.231384   0.0324792
-0.247224  0.293732 -0.280124
-0.0678806  -0.460721  -0.060136
 0.039971  0.327783 0.0120138
-0.222142  0.229367 -0.412644
-0.186241 0.0240858 -0.264988
-0.0896254  -0.200804  0.0076917
 -0.2143 0.314054 0.202785
-0.224213  0.422184 -0.295789
-0.0658878   0.315588 0.00114113
-0.0771812  -0.106885   0.337387
-0.00747394   -0.120547   -0.278532
-0.0755074   0.394052  0.0457984
-0.0632981  -0.114683  0.0144787
   0.242976    0.163329 -0.00216597
-0.0157793  -0.479963   0.135786
-0.0674807   0.265389  0.0294277
-0.00801834    0.383285   0.0499265
-0.0715599   -0.18508 0.00587163
-0.215968  0.439899 -0.214275
-0.0899899   0.305992  0.0193728
-0.238344  0.245497  0.382467
-0.173246  0.264781   0.14536
-0.197823  0.364533  0.167106
   0.204468   0.0749899 -0.00162073
0.00118148  -0.108253   0.287344
-0.210526  0.413128 -0.181786
 0.034074  0.253751 0.0166557
   -0.18 0.149615 0.166988
 -0.075754   0.250924 -0.0391429
-0.19729 0.214421 0.191967
-0.0703588    0.25396  0.0237431
 -0.122948   0.238097 -0.0539416
  0.150031   0.299218 0.00804297
  0.243691   0.182899 0.00895699
-0.0792867  -0.343008 -0.0790326
 -0.23001  0.362315 -0.369084
-0.244689  0.285035   0.37153
-0.0352333  -0.254295 -0.0407384
-0.0520394 -0.0922616   0.284986
-0.00541429    0.370899   0.0466868
-0.0916657   0.258028  0.0440096
-0.107228  0.284764 0.0368156
-0.0761561   0.240408 0.00933042
  0.215673    0.08983 0.00635588
   0.172737   0.0267221 -0.00487164
-0.230695   0.34871 -0.216463
  -0.0981187   -0.0558481 -0.000310781
-0.0873252 -0.0746195  0.0655074
-0.245461   0.24737  0.354439
0.0141907 -0.125427  0.301199
0.237484 0.201509 0.015418
-0.113888 -0.477967   0.16085
-0.0592864   0.354503 -0.0179033
-0.206129  0.120906  -0.21939
0.00460144  -0.232973 -0.0013899
-0.0894038   0.270228 0.00136067
-0.0838274  -0.424704 -0.0931434
-0.111551 -0.108516 0.0258215
 0.169976  0.243475 0.0298247
-0.239117   0.39201 -0.261631
-0.226799    0.4263 -0.245043
 -0.044982   0.244795 -0.0424262
-0.0376308   0.275647  0.0435697
  -0.0241261    -0.208573 -0.000500353
 -0.127819   0.277862 -0.0521866
-0.0287513  -0.201198  0.0196142
-0.0213594   0.327469 -0.0110063
-0.0579958 -0.0660089     0.2353
 -0.0523159    0.267372 -0.00469883
 -0.103322   0.298877 -0.0128317
-0.0979476   0.285576  0.0233932
 0.209637  0.104195 0.0352554
-0.0386748  -0.461553  0.0944158
-0.228272   0.21227 -0.237861
-0.0529067   0.256467  0.0469783
-0.232725  0.201373   0.28025
-0.0729117   0.400666  0.0479345
-0.206617  0.441119 -0.196049
-0.0233608  -0.105844   0.288407
-0.0351246   -0.46142  -0.116049
-0.182549  0.180364  0.168711
-0.0440975  -0.081063   0.236242
-0.094837 -0.193171 0.0406003
0.00169907   0.377748 -0.0302858
-0.0129641   0.357891 -0.0246253
-0.0216501   0.348195 -0.0200464
-0.0863698  -0.173162 0.00921324
-0.172366  0.186983 0.0176614
-0.214849  0.106692  0.308546
-0.230288  0.312439  0.235396
-0.239359  0.269156 -0.376845
-0.0568615  -0.464416    0.15282
-0.0632573  -0.109741  -0.299546
-0.024025  0.383423 0.0487763
-0.119659 -0.460016  0.135886
-0.229877  0.165616 -0.275017
-0.0657188  -0.373433 -0.0964797
-0.0714732  -0.435007   0.107996
-0.208612  0.181722 -0.201042
 -0.135395  -0.475319 -0.0691092
-0.0760347  -0.229424  0.0707163
-0.0507511 -0.0584613   0.280876
-0.0429651   0.263109 0.00632308
-0.0672913   0.328221  0.0219163
 0.0282232 -0.0516261   0.298613
-0.196019  0.132641 -0.189126
-0.0542496   0.255401   0.010174
-0.198022 0.0528023 -0.267294
-0.028984  0.266957 0.0181664
 -0.079263 -0.0695174   0.131659
-0.0296237  -0.177526  0.0232156
-0.209781  0.314279  -0.17644
 -0.1837 0.209329 0.170372
 -0.054993 -0.0595049   0.289535
-0.243557  0.375059  0.292997
0.0559703    0.3343 0.0153038
-0.107902  -0.45203 0.0976417
-0.0500887  -0.179476  0.0118511
-0.0535677  -0.210356 -0.0101606
  -0.134671    0.228298 -0.00138521
 0.244688  0.181631 0.0140638
 -0.00553313    -0.223803 -0.000331802
 -0.105645  -0.209804 -0.0331966
-0.0653725  -0.112216  0.0155871
-0.0664394   0.422028  -0.036664
-0.229482  0.245216  0.417899
-0.105034 -0.212399 0.0511399
-0.217388  0.114733  0.289114
  0.157956   0.290024 0.00959026
 -0.143478  -0.482009 -0.0824035
-0.224134  0.134646   -0.3001
-0.0822835  -0.105182  -0.078432
-0.222331  0.371596  0.396759
-0.231126  0.200953  0.269425
-0.0726671  -0.322953 -0.0814029
-0.249139  0.341305 -0.312581
 -0.07107 -0.388162  0.116057
-0.0612843 -0.0741698  -0.200896
-0.0763168   0.210361 0.00902253
-0.19394 0.418253  0.16773
-0.223943  0.153069  0.349241
-0.0156755   0.323131 -0.0437549
   -0.10241    0.260753 -0.00599603
-0.0757542  -0.208918  0.0440781
-0.0909445   -0.09727 0.00893589
-0.0805411  -0.156741  0.0694412
-0.0704018  -0.327894  -0.083729
-0.0811304   0.024173  0.0118981
-0.0760116  -0.336463   0.113013
-0.0689426 -0.0697094  -0.176093
-0.0910907 -0.0703977  0.0089979
 0.201605  0.223766 0.0334639
-0.202973  0.325848  0.181675
-0.0780626  0.0471882 0.00257268
-0.0767181   -0.35219 -0.0956752
-0.0999226 -0.0682225  0.0151551
-0.201105  0.266232 -0.172341
-0.0764309  -0.258883 -0.0650888
 -0.0311951    0.315778 -0.00447584
-0.0392339   0.262692  0.0487101
-0.0752785 -0.0930502   0.227834
-0.204784  0.225774 -0.184319
-0.0737104  -0.397739 -0.0986901
-0.0391402   0.251334  0.0606381
-0.236153  0.191084 -0.317654
-0.0664164  -0.127294  0.0113552
-0.100865  0.286778 0.0265291
-0.21041 0.410807  0.19812
-0.231682  0.225873 -0.243159
-0.0955461   0.201267 0.00915862
-0.186258  0.409969 -0.142593
  0.180108 0.00495088 0.00597221
-0.059798  0.411054 0.0539725
-0.200067  0.444103  -0.19159
-0.0890732 -0.0368709 0.00912095
 -0.0323668   -0.194431 -0.00486373
-0.231818  0.181316  0.278443
-0.186546  0.220552 -0.156035
  0.189096 -0.0283088  0.0128026
 -0.126154   0.250909 -0.0597748
-0.174593  0.223297 -0.136996
-0.0875038 -0.0266822 0.00806803
-0.0906325 -0.0594705 0.00730352
-0.0695246   0.312128  0.0130274
-0.19423 0.245207 0.181405
  0.182527  0.0593265 -0.0128895
-0.219499  0.150283 -0.242844
 0.179601 0.0368977 0.0194208
-0.217231  0.245107 -0.204189
-0.0577554  -0.463692 -0.0612973
-0.0563158   -0.46561   0.078036
-0.237945  0.395323 -0.272296
 -0.124515   0.236082 0.00931547
-0.221041  0.389932 -0.353441
-0.0858621  -0.415801  -0.087885
-0.0618046  -0.415773  -0.100104
  -0.116217    0.332473 -0.00804161
-0.0847904  -0.107013 -0.0614347
 -0.060442 -0.0788667   0.298137
-0.0837141  -0.192557  -0.013836
-0.108992 -0.466423 -0.135798
-0.246416  0.317997   0.29451
 0.24046 0.195272 0.004417
-0.0575782   0.260878  0.0384938
-0.236949   0.35811  0.364681
-0.0614523 -0.0625889   0.217967
-0.0752542  -0.295154 -0.0691688
-0.0203257 -0.0862256   0.273387
-0.0875965   0.288044 0.00512517
-0.0821407   0.380075  0.0426903
-0.0209696  -0.203222  0.0249053
 0.013692  0.336134 0.0257614
-0.082324   -0.1979 0.0164137
-0.0722057   0.298723 0.00885482
-0.0406091   0.313485  0.0216929
-0.201256  0.106185 -0.209783
  -0.0682017    -0.194398 -0.000627348
-0.0795595   0.044568  0.0113903
-0.0766005  0.0894184   0.012117
 -0.00965294     0.318588 -0.000149471
0.00376742   0.325044  0.0194048
-0.160869  0.213137 -0.116407
-0.176694  0.108426 -0.153609
-0.204921  0.453788  0.242349
-0.0345662  -0.201298  0.0123146
   0.21452   0.214912 -0.0128308
 0.0942157   0.320149 0.00900515
-0.153263  0.206705 0.0588084
-0.0971251  -0.170244 -0.0118905
-0.243791  0.257993  0.368866
 0.0583679   0.329796 0.00948884
0.0187987  0.354219 0.0345636
-0.0806833 -0.0882139   0.119104
 0.190316 0.0511752 0.0151551
-0.105984   0.25862 0.0299744
-0.15904 0.300772 0.113056
-0.220756  0.432382 -0.227494
-0.0408173   0.383479 -0.0303397
-0.248647   0.33524 -0.300962
-0.0926534   0.378537  0.0405952
-0.243112  0.373199 -0.304625
-0.249589  0.333619  0.329233
-0.0661126 -0.0608524  -0.205854
-0.0721361   0.397809  0.0477423
-0.0333161   0.268817  0.0048148
 -0.0899751    0.314763 -0.00383816
  0.120954   0.318178 0.00905183
 0.0184004  -0.239437 0.00901176
 -0.069583 -0.0570603   0.315787
-0.227399  0.266612 -0.413726
-0.0346299 -0.0526767   0.278833
-0.0360568  -0.200501  0.0103414
-0.232458  0.307904 -0.393937
-0.0775065  -0.271823 -0.0771236
-0.227828  0.304695  0.429409
-0.0774997 -0.0873818   -0.12376
-0.00746619  -0.0923442   -0.260638
-0.077663 -0.187262 0.0376012
-0.0846342 -0.0953322    0.17053
   0.243824    0.146889 0.000999425
-0.0638021 -0.0749862  -0.190834
 -0.037485 -0.0699151  -0.251689
    0.20599   0.0861992 -0.00759531
-0.220571  0.130955 -0.323272
-0.0223321   0.228478  0.0527441
-0.0676544   0.229086 -0.0633655
-0.0971351   0.351168  0.0481313
-0.213921  0.346293  -0.17948
0.0130155 -0.243148 0.0275117
-0.0428705 -0.0872826  -0.196816
-0.0568937   0.422363 -0.0369281
-0.107067  0.333345 0.0277343
-0.0754401  -0.374222 -0.0973252
-0.0555789  -0.189176 0.00869737
0.212684 0.245903 0.019553
-0.0826587  -0.367125   0.119605
-0.0683813  -0.132561 0.00716041
-0.0705215   0.293516 0.00890888
-0.0427749   0.269745  0.0159437
  0.202725  0.0892495 -0.0137155
-0.0586747  -0.407342 -0.0985723
-0.00902735  -0.0939117    0.277815
-0.0868243  -0.249123  0.0647815
-0.0747005   -0.34286   0.107355
-0.223163  0.356908  0.403047
-0.0199984   0.395124  0.0512361
-0.0166976  -0.198684  0.0303918
-0.189492  0.058865 -0.304634
 -0.123735   0.282625 -0.0441902
-0.0719651   0.386005  0.0301228
   0.188644    0.271232 0.000761638
-0.044689 -0.193509 0.0307161
-0.0386944   0.265422 -0.0310235
-0.0758223  -0.424965   0.117287
 -0.0559313    0.268826 -0.00593988
-0.0775116  -0.190398 -0.0232348
-0.210926  0.254526 -0.192568
-0.0142751  -0.231579  0.0368018
-0.207287 0.0892974 -0.311667
-0.245275   0.30118  0.276599
-0.0743635  -0.404679 -0.0992397
  0.230317   0.218628 0.00798581
  0.019247  -0.240403 0.00886318
-0.101445 -0.196975 0.0465649
-0.116348  0.247078  0.058477
-0.234208  0.316164 -0.228849
   0.212903    0.244136 0.000902386
 -0.014498  -0.206911 0.00620976
-0.234344  0.406101 -0.291375
 0.238569  0.181892 0.0229503
 -0.19361 0.0860648  -0.19982
-0.0258241  -0.197821  0.0234734
-0.243845  0.256733  0.357946
 0.223992  0.204572 0.0314083
-0.0987725   0.224356  0.0842285
 -0.147019   0.207356 -0.0633223
-0.0421167    0.23541  0.0163077
-0.000674239     0.269403   0.00885959
-0.177007 0.0396524 -0.180529
 -0.118651  -0.126004 -0.0162334
-0.230519  0.405375 -0.311711
-0.0835849   0.391238   0.046576
-0.0848335  -0.402205     0.1051
-0.241108  0.251374 -0.265872
-0.057543 -0.090607 -0.143042
-0.0897203  -0.436445 -0.0860645
-0.0422901 -0.0429888  -0.273281
 -0.080819    0.28603 0.00887512
-0.21982 0.436759  0.28012
 0.162202  0.240901 0.0343508
-0.0801516  -0.160474 -0.0479509
 -0.133286   -0.47018 -0.0793732
-0.224258  0.349689 -0.394573
-0.0835266    -0.0945   0.168588
 -0.06309  0.378703 0.0435405
-0.0118036  -0.108268   0.288014
-0.0560248 -0.0960152  -0.261054
-0.217636  0.172654 -0.372836
-0.203636  0.176512  0.209981
 -0.101902   0.266365 -0.0188895
 -0.0820373   -0.197907 -0.00360598
-0.0766912  -0.187842   0.027799
-0.187926 0.0386288  0.298092
 0.0133435   0.193934 0.00686249
-0.245326  0.273254 -0.278374
-0.0134099  -0.214776  0.0140405
  -0.07825 -0.0754447   0.140622
  0.138893   0.244697 -0.0145988
 -0.144188   0.250004 -0.0863146
-0.0835676  -0.103163   0.144117
-0.225269   0.26758 -0.416721
-0.0172519 -0.0387684  -0.272258
-0.0522411 -0.0485746   0.293609
-0.120988  0.219961 0.0920318
-0.110365  0.296739 0.0400217
0.00136955  -0.061776   0.287124
  0.191992 -0.0283725 0.00951203
-0.246591   0.26651 -0.288606
-0.0759312  -0.236388  0.0504276
 -0.0185934   -0.206713 -0.00657703
-0.109394 -0.148786    0.0311
 0.187646 0.0652264 0.0286407
 0.179635  0.278195 0.0153995
-0.0910708  -0.441914 -0.0799663
-0.0102306  -0.217008 0.00553421
-0.0311871 -0.0521034  -0.262131
0.216845 0.106231 0.027795
-0.216854  0.126018 -0.249485
-0.217554  0.395356 -0.357626
-0.0923038 -0.0782091 0.00210897
-0.218485  0.211102 -0.216631
-0.101057 -0.220354 0.0499316
-0.139817  0.220909 0.0138327
 -0.129788   0.307162 -0.0491077
 -0.107476  -0.164468 -0.0177079
 -0.0941219    0.294202 -0.00133575
-0.0816708   0.264692  0.0303092
-0.0938308   0.228502 -0.0614328
-0.0470184  -0.452227     0.1324
-0.0893618   0.284994 0.00348464
 -0.0520588    0.282863 -0.00225113
-0.0788267   0.394278  0.0447702
 -0.103889  -0.168548 -0.0176933
 -0.0854187 -0.00865639   0.0174706
-0.0625713     0.3695  0.0406594
-0.0704884   0.251609 0.00903713
-0.0762467  -0.279928 -0.0696912
-0.191777  0.035618 -0.254939
  0.187448   0.266477 0.00591982
-0.0822939  -0.078535     0.1108
-0.0488618  -0.158552  0.0159687
0.161866 0.248469 0.027799
 -0.23196  0.252062 -0.395676
-0.0450332 -0.0318153   0.303198
 -0.0766831   -0.173654 -0.00264922
-0.0553396   0.412947  0.0536324
-0.0902028 -0.0755648   0.009365
-0.0885867 -0.0708153 -0.0352647
-0.0360736 -0.0817106  -0.239939
-0.0742527 -0.0678863  -0.157386
 -0.155192   0.192485 -0.0866262
-0.204227   0.10468 -0.221032
-0.0835313 -0.0786397  -0.086026
 -0.135684   0.224685 -0.0763449
-0.177615  0.155846 -0.145714
-0.204722 0.0707275 -0.268404
 0.0540495   0.334385 0.00184578
  0.24527  0.161805 0.0148006
-0.032626  0.408862 0.0548565
-0.127558  0.233927 0.0138467
-0.0873235  -0.231012 0.00502331
 0.241896  0.143317 0.0184816
-0.0079274   0.335555  0.0299962
-0.176094  0.217917 -0.139438
-0.0546397 -0.0651351   0.245011
-0.188577  0.295883  0.162707
-0.208761  0.456663 -0.217661
-0.0648997 -0.0649781   0.206373
 -0.2333 0.173751 0.296772
-0.0657575  -0.302867  -0.070533
-0.0368697  -0.481895  -0.053787
-0.206711  0.450493  -0.26696
-0.0807898 -0.0832192  -0.104734
-0.108605 -0.179867 0.0439845
-0.0649366   0.409708  0.0524738
-0.0727741  -0.371758 -0.0966415
-0.0429671   0.297567   0.024099
-0.0664605   0.257113   0.046368
-0.203608  0.171067 -0.193846
-0.0765735  -0.171701 0.00645684
-0.0351891   0.419098 -0.0376447
 -0.140469   0.305608 -0.0127176
-0.0809471   -0.42261   0.114941
-0.190851 0.0303763  0.274495
  0.213652    0.24022 0.00163347
-0.0489871  -0.471377   0.156728
-0.0595653 -0.0948755  -0.250489
0.00116845    0.21187 0.00290867
-0.195534  0.153998 -0.179983
 0.0157644   -0.23205 0.00820156
-0.0866506  -0.106951  0.0580555
-0.0501916 -0.0585399  -0.263344
-0.160637  0.183133 -0.116621
-0.0613563  -0.071904   0.222008
-0.0654789 -0.0648321   0.221428
-0.229661  0.298584 -0.403768
-0.0766963  -0.345054   0.103999
-0.0750328  -0.229437 -0.0292464
-0.0887552 -0.0898629 -0.0369583
 -0.104723   0.237049 0.00820091
 0.245489  0.157111 0.0057409
-0.190171  0.392557   0.15744
-0.182407 0.0910005  0.192645
-0.0666702 -0.0513044   0.316215
-0.24267 0.243472 0.293125
-0.0826713  -0.197741 0.00317331
-0.0225915   0.335041 -0.0148254
 -0.24506  0.290783 -0.267176
-0.0855401  -0.216403   0.041806
-0.207038  0.166783  0.219808
-0.204083 0.0931195 -0.224058
-0.0507488  -0.295281  0.0867787
  -0.10675  -0.164724 -0.0165515
-0.229408  0.423869 -0.260236
-0.0614296 -0.0411579  -0.293947
-0.048513 -0.454574    0.1392
-0.0761082  -0.223062  0.0558877
-0.149817  0.211155 0.0108045
-0.174381 0.0492347   0.19433
 0.242702  0.186201 0.0033654
-0.225439  0.233658  0.241903
-0.0522587 -0.0653792   0.252933
-0.229006  0.279529 -0.417027
-0.0884588 -0.0411909 -0.0198143
-0.00376085   -0.221463   0.0070859
   0.231134    0.123165 -0.00431369
-0.243238  0.368947  0.283323
-0.0806224  -0.399998  -0.100923
-0.0351847  -0.198351  0.0164344
 -0.0214557    0.234336 -0.00952169
-0.172424  0.143732 -0.137122
-0.0333753   0.251735 -0.0471881
-0.0716008 -0.0928225   0.149731
-0.0707455  -0.078887   0.198811
-0.0237987   -0.47251 -0.0764693
-0.0729551 -0.0903903   0.222963
  -0.0296788     0.312413 -0.000812699
-0.0887769   0.219454 0.00806357
-0.0447188   0.254199  -0.028718
-0.0993465   0.273834  0.0290358
-0.0607935 -0.0748417   0.220459
-0.0531154 -0.0861781  -0.168411
-0.0552116   0.248309  -0.041644
-0.116212  0.241936 0.0711802
-0.0507986   0.303678 0.00270499
 -0.0879741    0.311504 -0.00316312
   0.13768   0.297399 0.00923313
-0.0709913  -0.460663  -0.136684
-0.225991  0.296777   0.22977
-0.243504  0.375733  0.314046
-0.0633431   0.266335 -0.0100978
-0.0885723  -0.400822   0.123029
-0.0875964 -0.0920786 0.00922035
-0.227993  0.334468 -0.209943
-0.0228228   0.229595 -0.0310286
 0.036842 -0.063285 -0.277074
  -0.0379585    -0.190718 -0.000788307
-0.207611 0.0976454  0.336205
-0.220528  0.192446 -0.225682
-0.224426   0.39556  0.221942
-0.0596066 -0.0977595   0.274403
-0.0668045  -0.064015  -0.195289
-0.065211 -0.423422  0.116606
-0.0873083  -0.430068 -0.0880189
-0.0592534 -0.0655338  -0.213846
 0.0476578   0.313781 0.00876553
 -0.079667   -0.36554 -0.0834637
-0.0807943   0.268607  0.0209001
 -0.0885838   -0.118341 -0.00673362
-0.226772  0.374994 -0.208878
-0.184227 0.0393645  0.219212
 -0.0901078   -0.112692 6.41967e-05
-0.246288  0.299926  0.288858
 0.240361  0.153734 0.0242691
-0.0755201  -0.196427  0.0148789
 -0.132899   0.291156 -0.0188692
-0.235295  0.256364  0.412744
-0.186005  0.229397  0.170659
 0.0375067  -0.243785 0.00876578
-0.19033 0.059034 0.224461
-0.0691832  -0.439747    0.13033
 -0.066607   -0.37791 -0.0973621
-0.0881776  -0.456492 -0.0627616
-0.0135213 -0.0377783    0.29125
-0.0390917  -0.228651 -0.0223076
-0.229242  0.289685  0.236111
-0.216845  0.233574  0.225084
-0.0704867 -0.0686538  -0.167012
  0.165621   0.283101 0.00858992
-0.213624    0.4484  0.262835
 -0.102273 -0.0877737  0.0179216
-0.0626764  -0.377912   0.115088
  -0.07539  0.0815407 0.00285944
-0.0282657   0.296729  0.0460851
-0.0354804   0.270187  0.0490405
 -0.20805  0.421944 -0.325213
-0.0717177  -0.344227   0.108642
-0.0860425  -0.342497 -0.0983545
-0.075042  0.126075  0.013154
-0.0478104 -0.0753901  -0.239097
-0.234471  0.182848 -0.273962
-0.250202  0.317346  0.322552
-0.0728824  -0.342009   0.107648
  0.099047   0.322356 0.00848405
-0.234202  0.186894 -0.303325
 -0.124825   0.239507 -0.0139326
-0.0787948  0.0523294  0.0061172
    0.244465     0.165392 -0.000435849
-0.0224924   0.310219  -0.018745
-0.0835264 -0.0925031  -0.326329
  0.203116 -0.0396887  0.0105242
0.0122432 -0.231714 0.0087184
-0.0845769  -0.439268 -0.0815629
  -0.100997    0.259948 0.000181403
-0.235938   0.22742 -0.249338
  0.189989  0.0513213 0.00015918
   0.10731    0.31977 0.00880661
-0.191616 0.0398305 -0.276136
-0.0666941  -0.450547  -0.122748
-0.0752359   0.193199  0.0118719
 -0.030236 -0.0875033  -0.222639
-0.220746  0.188835 -0.380726
-0.0801941  -0.433526 -0.0895541
 -0.0248959   -0.205438 -0.00193158
 -0.107054  -0.212049 0.00827206
-0.00635208   -0.482161  -0.0932443
-0.209091  0.116776  -0.33782
 0.150753  0.261826 0.0158323
 -0.102106  -0.231578 -0.0396477
-0.205177  0.100347 -0.231661
 0.185193 0.0332744 0.0109176
-0.144165  0.219575 0.0345629
-0.227828  0.217986   0.40937
-0.0622321   -0.40593   0.117662
-0.0827295  -0.214972 0.00757822
-0.083405 -0.346147  0.115025
-0.111638  0.288951 0.0418604
-0.221538  0.403041 -0.333007
-0.0833743  -0.148169 0.00809881
-0.0458938   0.246647  0.0708782
-0.0941789  -0.369533    0.12442
-0.233395  0.261512 -0.394078
-0.0445764  -0.266961 -0.0491169
-0.0757179  -0.276918   0.101675
 -0.126863   0.276971 -0.0508383
-0.244854  0.269796  0.362466
 -0.0374106   -0.193863 0.000409797
 0.156268   0.29826 0.0120358
-0.0518057 -0.0660687  -0.235356
-0.0640812   0.124996  0.0230961
-0.0235112 -0.0896012   0.247955
-0.0346986  -0.457215   0.111266
 -0.05128 -0.039357 -0.284336
-0.189216  0.165828  -0.16586
 -0.122748   0.344885 -0.0483631
-0.0961422   0.239107 -0.0538167
  -0.0781 -0.403878 -0.098457
-0.182786  0.102896  0.186974
-0.0662226 -0.0625145  -0.200052
-0.0837085   0.388237 -0.0292074
-0.209492  0.194901 -0.200549
0.00270056  -0.225282 0.00860757
   -0.1644   0.357914 -0.0982395
  -0.11133   0.250264 0.00195681
-0.192925  0.288841  0.172642
  -0.06504 -0.0647058  -0.187333
 -0.014407  -0.204328 -0.0131545
-0.0923197  -0.121322 0.00393786
  -0.212  0.42421 0.330638
-0.208271  0.138469 -0.359147
-0.226982  0.367848 -0.372523
-0.186816 0.0528817  0.222514
-0.0767384  0.0851867  0.0108041
-0.0327921   0.316989  0.0267263
  0.165734   0.288723 0.00488728
-0.218448  0.188121  0.239317
-0.0737634    0.28715 0.00879565
-0.229052  0.406861 -0.229138
-0.0916276  -0.096761  0.0104257
-0.231806  0.315567  0.413611
-0.240385   0.30921  0.391588
-0.0589786 -0.0649021  -0.214685
-0.218983  0.416591  -0.32199
-0.0527924  -0.440427   0.119417
-0.230241  0.328936  0.410494
-0.0530459  -0.440305 -0.0961405
-0.0845233   0.306092 0.00157379
-0.00485495   -0.213423 0.000221092
 -0.18743 0.0345299 -0.274535
-0.220776  0.147733  0.355042
-0.044045  0.339914 0.0324205
-0.0738789   0.264626 0.00853789
 -0.104369   0.357363 -0.0263073
-0.0768064  0.0753554  0.0056676
-0.185207  0.028597  0.289789
-0.199499  0.143517  0.210156
-0.0302586     0.2927 0.00865187
 -0.0966727    0.287635 -0.00407562
-0.228758  0.319905 -0.397637
-0.0644598  -0.154931  0.0495322
-0.0327534 -0.0877242  -0.220431
-0.0112999  -0.215736 0.00771473
 -0.125839   0.254884 -0.0576894
-0.241134  0.225948  0.297545
-0.0248362  -0.474833  -0.128433
-0.0860077 -0.0929112  0.0808475
-0.0951938  -0.397947  -0.109339
 0.147711  0.247367 0.0276739
-0.232573  0.323421  0.238773
-0.236737  0.379973  0.352989
0.238288 0.183493 0.024797
-0.0799633   0.230311 -0.0621117
-0.0742774   0.425419 -0.0370532
-0.238673  0.252665 -0.376338
-0.220768  0.305239  0.217592
 0.172203 0.0154916 0.0172693
0.00940844  -0.104237  -0.269317
-0.0583866 -0.0638931   0.231789
-0.0578544 -0.0637855   0.239437
 -0.134123  -0.474537 -0.0764405
  0.208583 -0.0393021  0.0104372
-0.240436  0.340882  0.367838
-0.204293  0.355785 -0.161387
-0.0827682  -0.116502  0.0684016
-0.205118  0.101639  0.349617
-0.234331  0.378986  0.365405
-0.035527  0.251678 0.0628648
-0.218027  0.435538  0.293589
-0.0532771 -0.0655807  -0.231401
-0.197573 0.0673716  0.324751
-0.0525383  -0.104535  -0.280696
-0.0346652  -0.464769   0.139497
 -0.146958   0.228348 -0.0943868
 -0.121184   0.243816 -0.0167797
-0.0418549   -0.19739  0.0050462
-0.224186  0.322692  0.422862
 0.229543  0.217733 0.0186973
0.225948 0.111854  0.01995
 -0.108504   -0.18072 0.00566627
-0.0403023   0.255251 -0.0344843
 0.132322  0.253418 0.0231985
-0.0994779  -0.450753  0.0892688
-0.0534766  -0.064932  -0.229748
-0.212823  0.100525  0.271383
-0.000162796     0.376382    0.0471924
 -0.106605  -0.180144 -0.0268063
 -0.138706  -0.483219 -0.0564245
  -0.123072    0.241071 -0.00622871
 0.0374571 -0.0876427   -0.27582
 -0.107599  -0.207323 0.00900024
    0.235007     0.205564 -0.000935298
-0.0486689 -0.0726679   0.255947
-0.226781  0.285942  0.431619
-0.0981629  -0.249339 -0.0499571
-0.216921  0.288351  0.212144
-0.237157   0.37931   0.34336
-0.195811 0.0533417  0.307343
0.0290512 -0.124379  0.296632
-0.197779 0.0541807 -0.288331
 0.0589387   0.256886 0.00177829
-0.0799931 -0.0784906  -0.109236
-0.21282 0.334503 0.196884
-0.241923  0.281168 -0.259443
-0.236907   0.19915  0.310264
-0.194929  0.048194 -0.250043
-0.206855 0.0817076 -0.281572
-0.0368864   0.266407  0.0501842
-0.00911317   -0.122585    0.297965
-0.0570665   0.287694 0.00874558
-0.0812824  -0.315646 -0.0891967
-0.235461  0.180094 -0.290946
 -0.0839841 -0.00122135 -0.00251926
-0.0532234   0.244723  0.0641142
-0.0326265   0.280114 -0.0286587
-0.224976  0.228862 -0.227013
-0.0721219  -0.184823  0.0123862
-0.227091  0.213197  0.403817
-0.067105 -0.266409 -0.051425
-0.0489658 -0.0793004   0.263281
-0.0851238  -0.097357   0.199043
-0.0744247   0.180201 0.00544301
-0.0836717  -0.463145  0.0749691
-0.119484  0.309386 0.0516664
-0.0953914   0.262472  0.0107242
-0.0825848 -0.0927888  -0.170206
-0.209101  0.129172  0.369166
-0.0682435 -0.0608696   -0.29555
-0.0427682  -0.449239  -0.103003
-0.0325548   0.280296  0.0485097
 -0.24134  0.324743 -0.361438
 -0.09375 -0.445821   0.13441
0.00173903   0.368726  0.0447158
-0.0833394  -0.401965  -0.101732
-0.0398685   0.418645  0.0564705
 -0.0719735   -0.192544 0.000369582
 0.151843  0.244606 0.0314227
-0.131372 -0.483075 -0.141989
-0.223482  0.432519  0.287189
 -0.114425   0.345665 -0.0114482
-0.100615 -0.191004 0.0440423
-0.210732 0.0907863  0.282694
-0.0385355   0.257018 -0.0365783
   0.228717    0.114146 -0.00209019
 -0.0806674   0.0266566 0.000236386
-0.239753  0.291373  0.265865
-0.0234337   0.266379 0.00895185
-0.0616971   0.411313 -0.0354247
-0.230194  0.189975    -0.355
-0.241881  0.375236 -0.268935
  0.102439   0.284323 0.00872861
 -0.101436   -0.14907 -0.0059158
-0.0692011 -0.0641601  -0.187872
-0.00804397    0.220351   0.0319252
-0.224044   0.24276 -0.218202
-0.0751029  -0.247558 -0.0441899
-0.0972657  -0.480743  -0.035292
-0.0433037 -0.0873714   0.209593
 -0.162722   0.198853 -0.0116651
   0.237974     0.14576 -0.00594723
-0.0872251 -0.0227055 0.00764701
-0.239521  0.213849  -0.27604
-0.0533732  -0.214394  0.0310064
-0.0198065  -0.211806  0.0188876
 -0.0788613    0.267332 -0.00510914
-0.0541209 -0.0839277  -0.244771
-0.0933349  -0.440253   0.100559
  0.213627 -0.0372437 0.00643293
-0.0880946   0.328373  0.0279297
-0.0971099   0.295182  0.0219409
-0.122624  0.241217 0.0332582
 -0.12905 -0.479957  0.160303
-0.0815729  -0.135504 0.00918113
  0.238902   0.130461 0.00827368
-0.217717  0.435038  0.235008
-0.0594438 -0.0743593   0.226075
-0.0795389  -0.388898  -0.092343
-0.101123 -0.454565 0.0849335
-0.0672401   0.248013   0.060651
-0.223445  0.209955  -0.22682
-0.00695932   -0.214055  -0.0151733
-0.0345542  -0.200962  0.0152441
 -0.18866  0.287847 -0.147729
-0.0980002 -0.0902977  0.0019116
-0.0559206 -0.0551952   0.292244
-0.234854  0.196702  0.355262
 -0.145054   0.212405 -0.0541541
-0.0781961   -0.21768  0.0265869
-0.248573  0.344158  0.300282
-0.0858034   0.343112 -0.0126987
-0.108044 -0.467692  0.153564
 -0.17441  0.256562 -0.131802
-0.0885722 -0.0348335 0.00924271
-0.109565 -0.203335 0.0519376
-0.0711477   0.393444  0.0460761
-0.229659  0.406065 -0.314728
-0.0907536  -0.110282   0.011734
-0.238625  0.348405  0.256684
-0.0447464   0.283347 -0.0105837
-0.0291792 -0.0889853   0.245659
-0.0855717  -0.126774  0.0379336
-0.187028 0.0278336  0.273861
-0.0828063 -0.0942413  -0.172488
-0.0430981   0.412572 -0.0378422
-0.206916  0.412486  0.193272
-0.175931 0.0845039  0.181125
-0.0731275   0.324418  0.0193841
-0.243053  0.322453 -0.252179
-0.0513236 -0.0571849  -0.267196
-0.0613156   -0.23415 -0.0299965
-0.206789  0.401555  0.188714
 -0.18116 0.0734936 -0.176797
 -0.076206   0.107428 0.00521305
-0.231628  0.411441 -0.246858
-0.196733 0.0686243 -0.221422
-0.225094  0.274532  0.433457
 -0.0424157    0.323533 -0.00825504
-0.0617938   0.264008  0.0334322
 0.220616 -0.029553 0.0030246
-0.0642873  -0.387499   0.115479
-0.0251963  -0.206605  0.0114208
 -0.134967   0.227796 -0.0230132
-0.170146  0.197114  0.149226
-0.177374  0.080813 -0.162474
 -0.18517  0.340746 -0.129237
-0.0659585 -0.0616628   -0.18345
-0.0801228  -0.316193    0.10619
-0.240257  0.228793  0.287393
-0.0465295 -0.0642902   0.262951
-0.123385  0.238919 0.0598988
-0.248148  0.283516  0.301762
 -0.20902 0.0914159 -0.253532
-0.228226  0.384952  -0.34963
-0.24715 0.289221 0.346869
 -0.12244 -0.480306 0.0572029
-0.0646178 -0.0768178   -0.17969
-0.208619  0.138224 -0.214706
 -0.148733   0.201521 -0.0958181
-0.00693918   -0.210636   0.0198961
-0.212086  0.399232 -0.180303
-0.0642756 -0.0673397  -0.195215
-0.207683  0.242871  0.205851
-0.0997557  -0.190643 -0.0253928
-0.204073  0.445143  0.208552
-0.0997571   0.281573  0.0270774
-0.102521  0.297403 0.0210033
-0.0652335   0.337915  0.0267703
-0.0875885  -0.187366   0.032211
-0.213697   0.38654  0.195093
-0.0757371   0.354226 -0.0154048
-0.0894259  -0.142825 0.00421921
-0.0372828    -0.1988 0.00289311
-0.055412  -0.13472  0.325057
-0.0135395 -0.0910944   0.276025
-0.0565393   0.260637  0.0393854
-0.130718  0.234647 0.0292312
-0.242431  0.368299 -0.257453
-0.0508391 -0.0632115    0.26015
-0.043117 -0.184708 0.0154541
-0.240983  0.369187  0.345931
   0.188968   0.0587085 -0.00713481
-0.216413  0.129005 -0.328103
-0.115804  0.248634 0.0296895
-0.0414642 -0.0878508  -0.198255
 -0.11431 -0.128673 0.0297273
  -0.05249 -0.0150179  -0.310741
  0.233013   0.160307 -0.0153738
-0.227061  0.314608  0.420095
 -0.037135   0.251805 -0.0469532
-0.199859  0.110856  0.368064
-0.238619   0.19887 -0.292327
-0.241237   0.32626  0.262886
-0.238555  0.189994  0.315712
-0.0955227   -0.48422  0.0529657
-0.0762795  -0.292629  0.0875801
-0.0535505   -0.44113   0.111815
-0.0789445 -0.0694314   0.125617
-0.0583226   0.274418  0.0146838
-0.0871363  -0.200237 0.00947459
 0.234488  0.132786 0.0211996
  0.241115 -0.0315974  0.0377922
-0.0931794  -0.171695  0.0283235
-0.0896301   0.252451 -0.0365115
-0.213297  0.351044  0.195971
-0.0967139  -0.419927  -0.108363
  -0.11704   0.279939 -0.0348566
-0.0453477   0.267911  0.0358169
  0.177588 -0.0130522 0.00280321
-0.0335114   0.287809 -0.0242203
-0.0607636  -0.420367   0.116441
 -0.099049   0.289505 -0.0063623
  -0.2367  0.210528 -0.338594
-0.169648  0.170945  0.150119
0.0211814  0.329374 0.0182364
-0.0822611   0.255259 -0.0314777
-0.0577859   0.238536 -0.0529155
-0.241032  0.326384  0.262233
  -0.13419    0.25806 -0.0685877
 -0.0908622    0.282053 0.000877806
  0.22196  0.212221 0.0273753
-0.209862  0.378417 -0.173157
-0.0778186  -0.190043 -0.0255495
-0.203152 0.0879044  0.337059
 0.164506  0.294515 0.0144144
-0.070219 -0.431362 -0.104462
-0.235088  0.405123 -0.249419
-0.0792161 -0.0976763  -0.107499
-0.222646  0.165394 -0.359322
 -0.047968  -0.449627 -0.0861369
-0.0905408  -0.413822  -0.105784
  -0.2253  0.146249 -0.267976
-0.224859  0.186965  0.387635
-0.0602235   0.390916  0.0482741
-0.0927075 -0.0174629  0.0159736
-0.0866797  -0.137318 0.00613433
 -0.100081  -0.204875 -0.0118487
-0.00819852  -0.0360644    0.292725
 -0.0337774   -0.207944 -0.00225771
-0.228432  0.167534 -0.338882
-0.219242   0.14986  0.255827
 -0.2474 0.288084 0.301804
    0.1941  0.0780147 -0.0147306
-0.0535259   0.258316 -0.0259553
 -0.069867 -0.0695083  -0.297259
-0.242979  0.359204 -0.265994
  -0.09809 -0.0994034 0.00116092
 -0.060617 -0.0672272  -0.207886
-0.0637431  -0.453925  -0.127119
-0.192487  0.386811 -0.142112
-0.0912401   0.289638  0.0161327
 0.194539  0.248076 0.0191138
 -0.078967  -0.405622 -0.0990889
-0.104374 -0.115352 0.0214028
-0.0629697 -0.0836455  -0.154616
-0.043292 -0.454014 -0.081079
  0.18238  0.052099 0.0257334
-0.0892418  -0.353571  -0.101753
-0.195074  0.109885 -0.346712
-0.213725  0.127896 -0.337316
-0.0243177   0.235636  -0.023037
-0.244931  0.299712 -0.350095
  0.180275    0.28032 -0.0002958
-0.120568  0.242977 0.0207008
-0.0708915  -0.438799   0.103401
-0.137487 -0.484189 0.0700648
-0.00759906    0.357308  -0.0235352
-0.0315042  -0.218693  0.0296663
-0.229259  0.191364  0.266786
  0.185971 -0.0222989  0.0106602
-0.0757849     0.2941 0.00884908
-0.200267 0.0582006 -0.264694
 0.191141 0.0727103 0.0328069
 -0.005487  -0.231763 -0.0153792
-0.211778  0.445393 -0.217765
-0.0343844   0.261997  0.0548533
-0.00707043    0.376172  -0.0306077
 -0.0968542    0.340928 -0.00967058
-0.242031  0.231857  0.306188
-0.0430172     0.3937  0.0499132
-0.0490435  -0.233486 -0.0269219
-0.0857002   0.276578  0.0124844
-0.0625367 -0.0862115  -0.227853
-0.0995669   0.264164  0.0269675
 -0.105056  -0.119544 -0.0045819
 -0.0995174   -0.104361 4.01705e-05
 -0.114606   0.350919 -0.0433636
-0.176628 0.0978534 -0.157968
-0.235384   0.40416  0.286506
-0.0469925 -0.0652562    0.26638
-0.0450583   0.268936 0.00888708
-0.0628505  -0.188798 0.00862319
 -0.10385 -0.231294 -0.040565
-0.23449 0.317782 -0.38832
-0.0408468 -0.0884781  -0.193717
 -0.0857671 -0.00940625   0.0105897
-0.0512148  -0.193134  0.0106344
-0.222677   0.19447  0.244612
-0.246125  0.278348 -0.271611
-0.0556327 -0.0792862  -0.193523
-0.208163 0.0993269    0.2561
-0.0792942  -0.361462   0.102067
-0.225677  0.387529 -0.206211
-0.112998 -0.451875  0.130085
-0.0961786  -0.438725   0.126752
  0.187985  0.0444044 0.00257935
-0.0947421  -0.181092 -0.0161032
-0.0930814   0.271467  0.0223781
-0.0116303    0.30034 -0.0412055
-0.223034  0.132085 -0.301676
-0.0678196 -0.0677156    0.20049
-0.223613  0.213881  0.242535
-0.0551525 -0.0763129   -0.22316
-0.0768873  -0.265224  0.0671971
-0.0547684 -0.0590067   0.287974
   0.19618 -0.0346037  0.0103249
-0.0614376  -0.093773    0.30203
-0.0759792   0.294517 0.00881267
-0.0671311  -0.192835  0.0162538
-0.0917415    0.26715  0.0141754
 -0.076458  0.0688611 0.00435841
-0.0665093 -0.0812353  -0.206406
-0.00783349    0.295503  0.00880403
-0.128365  0.258303  0.077769
-0.0561962 -0.0551408  -0.275072
-0.222373  0.139202  -0.31018
 -0.0566147   -0.196015 0.000882665
-0.0757304   0.193689 0.00495287
-0.0260675    0.24799 0.00981195
   -0.0879 -0.0800522  0.0613684
0.00214942 -0.0366273  -0.277251
-0.0792765  -0.139483  0.0592653
-0.0880627 -0.0281752  0.0102988
-0.238936  0.388578 -0.257947
-0.0874532 -0.0437056   0.034036
-0.234567  0.365208  0.242757
-0.0330514   0.256108 -0.0429869
   0.24331   0.156263 -0.0020008
-0.217231  0.352742  0.202245
   0.17776  0.0248845 0.00128297
  0.16482  0.287551 0.0111075
-0.0177935   0.258311 0.00826566
-0.0449177   0.287094 0.00896375
-0.206059  0.379974  0.183805
-0.229086  0.299595 -0.410532
-0.0937546   0.365394 -0.0188873
-0.0715522  -0.376794   0.115041
-0.06823 -0.32516 -0.08256
-0.0905707  -0.058991 0.00888375
-0.0257806    0.31545 -0.0295721
-0.115444 -0.100277 0.0270527
-0.203365  0.456724  0.271393
-0.210792  0.133196  0.368332
-0.241452  0.293137 -0.256186
-0.0248489   0.305168 -0.0348583
-0.0823376  -0.374185   0.100545
 0.206624 0.0961691 0.0337774
-0.223738  0.339426 -0.395546
-0.207882 0.0899847  0.329558
-0.237543  0.203117  0.348799
-0.174602  0.135157 -0.142892
 -0.106648   0.297303 -0.0173555
 -0.0493064    0.263166 -0.00868202
-0.0624751 -0.0716664    0.21511
-0.0873864    0.35282  0.0321751
-0.0448064  -0.104841   0.294502
-0.23166  0.23895  0.25361
-0.0801707  -0.130093  0.0724864
-0.233575  0.219273  0.390651
 -0.167295   0.192998 -0.0217659
-0.216152  0.410024 -0.190422
-0.240377  0.262573 -0.258451
-0.0117367   0.393424  0.0510637
 -0.24092  0.226232 -0.338732
-0.0759204  -0.207894 -0.0082299
  0.194086  0.0545798 0.00459754
-0.226464  0.413864  0.326215
-0.0428354 -0.0901586  -0.183367
 -0.0825545  0.00684526 -0.00791945
-0.0704532  -0.449029  0.0932402
-0.234419  0.410969  0.288895
-0.0905417 -0.0740985   0.041909
-0.242959  0.333891 -0.348144
-0.0852589  -0.083887 -0.0701139
-0.246794   0.30721  0.356351
-0.0867587 -0.0214413 0.00190925
  -0.05703  -0.160702 0.00643554
-0.0741746 -0.0803136  -0.142348
-0.209377  0.362662 -0.168975
-0.231671  0.170835  0.328235
   -0.1072  -0.208936 -0.0333241
-0.0783284  0.0436892  0.0172735
-0.0524729 -0.0646877    0.25364
 0.0163398   0.275317 0.00873995
-0.080193 -0.353898  0.100857
-0.0431989   -0.17466  0.0162342
-0.0805879  -0.260232  0.0688234
-0.0856736   0.264277  0.0317303
 0.239272  0.141781 0.0212184
 -0.085543 -0.0414001 -0.0338102
-0.207137  0.103293  0.348022
-0.205849  0.311244 -0.171089
-0.0278658  -0.461802   0.121459
-0.107885 -0.211038 0.0522697
-0.045177 -0.448562    0.1068
-0.0232861  -0.208312  0.0151265
-0.20241 0.153462 0.213979
-0.245352  0.252902  0.302049
-0.0590747   0.262038  0.0365851
-0.204646  0.216558  0.203613
-0.0555891 -0.0637004  -0.218331
-0.241288  0.294776 -0.370419
-0.102343  0.359032 0.0340097
-0.0863067    0.33892  0.0287808
 -0.089715  -0.235909 -0.0397381
-0.0848833  -0.120074 -0.0364265
-0.0603553   -0.42575   0.118176
0.00474099   0.365134  0.0427694
 -0.136388    0.25057 -0.0750307
  0.242009   0.151873 -0.0028988
-0.0950892  -0.431921   0.125915
  -0.11406  -0.113723 -0.0115638
-0.0714484 -0.0674621   0.167412
 0.202822  0.260381 0.0212463
-0.222461  0.209222   0.41546
-0.0339891   0.235577 -0.0487874
-0.197639  0.383723   0.16627
-0.234075  0.292293 -0.231256
-0.0896635  -0.191436 0.00882379
-0.230351  0.412716  0.302676
-0.24388 0.370437 0.277598
  -0.07877  -0.167425 -0.0553516
-0.217151  0.188222  0.232982
-0.0672248 -0.0655148  -0.181053
  -0.108166   -0.129921 -0.00723338
-0.00219006    0.332835   0.0261861
-0.230019  0.163123 -0.320333
-0.201901  0.381302  -0.15596
-0.231542  0.208722 -0.248763
-0.199486 0.0943672 -0.213566
-0.194065 0.0574902  0.316059
-0.158002  0.203209 0.0494612
 -0.150829   0.253594 -0.0946655
-0.0194605  -0.192335 -0.0156264
-0.184027 0.0332915 -0.201989
 -0.158481   0.201206 0.00890048
-0.23639  0.35183 -0.36169
-0.0682546  -0.325643   0.100399
-0.0356491  -0.224768   0.034958
-0.0568694 -0.0639254  -0.226428
  -0.2376  0.254068 -0.378618
 -0.105148  -0.211207 -0.0321135
-0.0371813  -0.022635  -0.288233
  -0.10937 -0.0826276   0.021363
-0.0646167  -0.463634  0.0765549
-0.0638924   -0.43764   0.126168
-0.183323 0.0134723 -0.238774
  0.231818   0.215068 0.00164653
-0.0553959  -0.158647  0.0118221
-0.0285656   0.392282 -0.0323351
-0.0890295 -0.0539953  0.0283692
  -0.2296   0.18966 -0.358175
-0.179794  0.019344  0.227539
    0.244054      0.17944 -0.000284693
-0.058829  0.349872 0.0335738
-0.227827  0.332284 -0.393365
-0.00784415    0.313054   0.0132311
-0.0361598 -0.0872276  -0.256752
-0.075031   0.18757 0.0051661
-0.0453516 -0.0873283  -0.177169
-0.0940566   0.350899 -0.0133977
-0.0333921    0.26937  0.0523485
-0.0481402   0.299324 0.00363839
 -0.0759849   -0.187016 -0.00645104
-0.0463769 -0.0684894  -0.251213
-0.0820838  -0.374087   0.120509
 0.170773 0.0286022 0.0276861
-0.0856071   0.252839 0.00804833
-0.244215  0.246317 -0.344522
-0.0684476  -0.397074   0.116176
-0.239044  0.241502 -0.362422
-0.199995  0.103256 -0.337537
-0.0635463 -0.0676125   -0.20033
  -0.111906    0.299487 -0.00899951
 0.195308 0.0810036 0.0312608
-0.0167683  -0.106024   -0.26888
  -0.10046 -0.0778516  0.0165636
-0.0695026    0.27322  0.0126874
-0.230307  0.358416 -0.216132
  0.207759  0.0800576 0.00335969
-0.0727095   0.370209 -0.0101283
-0.189225  0.200873 -0.162453
-0.0669349  -0.444102  0.0988858
-0.170916  0.299201 -0.114527
-0.241584  0.286188 -0.248707
-0.0110064   0.335222 -0.0136784
-0.131186    0.2277 0.0822623
-0.0878834   0.296584  0.0030435
-0.211975  0.180805  0.224955
-0.0432957   0.256923  0.0274335
 -0.0477638    0.318507 -0.00553063
-0.070787 -0.115648 0.0111907
-0.0780577 -0.0747613  -0.121695
-0.227419  0.323837 -0.209373
-0.0718107  -0.263286  0.0683272
-0.0761836   0.156969  0.0070258
-0.0781856 -0.0925438   0.134299
-0.0251609   0.327314 -0.0174861
-0.178005  0.328007   0.13785
-0.0631021 -0.0674982   -0.20073
-0.235777  0.397715 -0.249841
  0.188402 0.00246922 0.00821054
-0.0358479   0.257497  0.0568358
0.0150065  0.362188 0.0406419
-0.0504947  -0.193156 0.00954933
-0.0648953 -0.0659035   0.207906
 -0.057433   0.277477 0.00445582
 0.212662 0.0972328 0.0291117
-0.0662492 -0.0657473   0.214835
-0.189989  0.031381  0.289032
-0.0979285    0.27991  0.0258736
-0.0763681  0.0631807 0.00218052
-0.0954082  -0.421483    0.12658
 0.168118  0.285497 0.0056207
-0.175535  0.370922  0.133924
-0.0837232  -0.282413  0.0813028
-0.235974  0.186934  0.310548
0.00237767   0.360476 -0.0243288
-0.0565661 -0.0803538   0.193736
 0.198507  0.254903 0.0105171
-0.245119  0.272015  0.366537
-0.0810158  -0.114751 -0.0742121
-0.198018 0.0542588 -0.287471
-0.0915753 -0.0797578 0.00952452
-0.076504 -0.195989 0.0303263
-0.234184  0.248774   0.40369
-0.206259  0.438899 -0.291601
-0.0368185   -0.45706   0.125931
-0.128961  0.248353 0.0817278
-0.0708367   0.274499 0.00820538
-0.239579  0.217544    0.3298
-0.0507181 -0.0649118   0.255573
 0.192462   0.26329 0.0148285
  0.020398 -0.0872647   0.288698
-0.106369 -0.452014  0.138212
 -0.11337 -0.140679 0.0292845
-0.0671232  -0.063779  -0.181707
-0.0729393  -0.415934   0.116979
 0.242585  0.140782 0.0099086
-0.175741 0.0311151 -0.192178
-0.222309  0.280754 -0.208302
-0.0677915  -0.394844   0.116696
-0.0872283 -0.0262496  0.0304801
-0.0782641  -0.405071   0.115319
-0.0776712  -0.213191  0.0489653
-0.0747968   0.377278  0.0408168
  0.244736   0.163379 0.00108171
-0.224333  0.395493 -0.340003
 -0.060091  -0.167497 0.00928148
-0.0582007   0.363898  0.0385897
-0.0771118   0.134529 0.00946256
 -0.058767   0.424588 -0.0374302
-0.075705 -0.377136   0.11607
-0.208947  0.129884  0.235183
 -0.17793 0.0124963  0.246178
 -0.0843277 -0.00254319   0.0267769
-0.194204  0.147115  0.196414
-0.0997259  -0.199347 0.00898963
 -0.085672   -0.19896 0.00881387
-0.0786466  -0.196163 0.00326879
-0.0772893  -0.267017 -0.0692028
-0.243999  0.232781  0.299502
 0.188999 0.0436744 0.0141278
-0.0565218  -0.425602   0.116599
-0.198658 0.0584696 -0.249399
-0.198168 0.0944044 -0.328976
-0.137264  0.227452 0.0288522
 0.226437  0.107599 0.0126056
-0.0553106 -0.0986616   0.294763
-0.226556  0.348975  -0.38707
-0.219486  0.119417  0.318859
 0.036332 -0.057897  0.295375
-0.215935  0.428892  0.222208
-0.0582827   0.260975 -0.0204405
    0.238759     0.134907 -0.000169672
-0.0658167 -0.0636065   0.204553
-0.0353408   0.261726  0.0552195
-0.141448  0.219721 0.0155373
0.0279288  0.354643  0.034316
-0.0265035  -0.203814  0.0188293
-0.0858751   -0.12617  0.0364545
-0.0757124  -0.362512   0.114316
-0.101267  0.321082 0.0208969
-0.133022  0.220444 0.0927552
-0.0237834    0.32191   0.024896
-0.0270666  -0.107551  -0.272466
-0.0665184 -0.0894943    0.24091
 0.172176 0.0196976 0.0195564
-0.156924  0.365939  0.108468
-0.0843721   0.284855 0.00837957
0.00209736   0.213055  0.0124411
0.222584 0.129921 0.032842
-0.084212 -0.145069 0.0103019
-0.18054 0.250553 0.159106
-0.232659  0.243121 -0.396791
-0.0657723   0.384587  0.0451184
-0.0681379   0.301026 0.00880683
-0.0428086   0.255851  0.0505541
 -0.051872   0.249994 -0.0398748
-0.218627  0.268171  0.221659
-0.0768711    0.13805 0.00823819
  -0.07434   -0.40176 0.00556314
-0.0881513 -0.0297556  0.0145922
   0.11644   0.304521 0.00879695
-0.186339 0.0486762 -0.207846
-0.0626046 -0.0619448   0.230013
-0.133152 -0.479786  0.159471
-0.0437426 -0.0599437  -0.255878
-0.216992  0.170108    -0.374
-0.186911   0.18255 -0.158984
 -0.063228 -0.0642096   0.212224
 0.246286  0.179646 0.0204702
-0.108234 -0.103125 0.0230667
-0.0805743  -0.354266  0.0996637
-0.242069   0.22235  0.302142
-0.197975 0.0789349  0.235887
