 0.512031 0.0320274  0.054358
  0.45092   0.07981 0.0527037
 0.313061  0.132431 0.0378151
  0.30211  0.131254 0.0401459
  0.26617  0.163836 0.0466459
 0.498917 0.0917295 0.0639127
 0.274983   0.10353 0.0546433
0.264014   0.1284 0.075755
 0.215809  0.149998 0.0658047
  0.22593  0.142234 0.0637103
0.0873065  0.227496 0.0753617
   0.1408  0.201248 0.0724305
 0.14453 0.195627 0.074601
0.186521 0.170246 0.070375
0.0355476  0.228237 0.0982871
0.0288644  0.217631 0.0896114
 0.021896  0.236086 0.0975357
 0.050353  0.207494 0.0900158
0.0504305  0.134782  0.123629
0.0503442  0.138269   0.14274
0.0662558 0.0985384  0.115861
0.0599812  0.214676  0.112468
0.217422 0.171013 0.111376
 0.226752  0.142308 0.0823354
 0.404277 0.0490404 0.0713607
 0.273774 0.0546786 0.0697172
 0.124947 0.0195221  0.158404
   0.484277 -0.00528682    0.157878
 0.187737 0.0238962    0.1065
  0.173143 -0.0376409   0.115685
   0.16522 -0.0282138   0.144034
  0.124946 -0.0796218   0.136663
  0.0370998 -0.00388412    0.138664
0.0533116 0.0111991  0.145098
0.0798374 0.0252379  0.147266
 0.280417 0.0149756  0.129546
0.0442115 0.0947601  0.179161
 0.105627 0.0667559    0.1141
0.0384244 0.0847523  0.144549
   0.362224 -0.00256161    0.161227
 0.369529 0.0433219  0.147419
 0.369998 0.0870089  0.101926
0.474921 0.040566 0.135315
  0.432209 -0.0787523   0.143852
 0.487108 -0.142646 0.0273561
 0.394081  -0.18666 0.0483673
  0.45348 -0.126321 0.0770254
 0.297217 -0.147428  0.069308
  0.28323 -0.116701 0.0586188
 0.453653 -0.161853 0.0300097
 0.109094 -0.142821 0.0824343
 0.258762 -0.120307 0.0584414
 0.201135 -0.130276 0.0760753
0.0750088 -0.134494   0.11827
  0.261571 -0.0898366   0.125517
 0.257094 -0.107707    0.1333
  0.281703 -0.0777154  0.0957386
 0.489026 -0.092722   0.08928
 0.395603 -0.130827   0.11503
 0.424449 -0.111879 0.0982932
 0.450532 -0.139598  0.127839
 0.464156 -0.181291 0.0695894
 0.444691 -0.172127 0.0636864
 0.274321 -0.223846 0.0521103
  0.30475 -0.147061 0.0465767
 0.161703 -0.147072 0.0623336
 0.178149 -0.149351 0.0522489
 0.118509 -0.206524 0.0711138
 0.102312 -0.207738 0.0667046
 0.191853 -0.171117 0.0337998
 0.132007 -0.300448 0.0128712
  0.116938  -0.274582 -0.0237954
  0.0972735   -0.262943 -0.00405095
 0.0981686  -0.278203 0.00143163
 0.0725441  -0.297104 0.00260542
 0.090758 -0.198196 0.0238844
 0.141004 -0.280618 -0.029778
   0.245776   -0.275935 -0.00263158
   0.236686   -0.205075 -0.00732754
  0.276257  -0.233288 0.00863732
   0.267076   -0.230275 -0.00970698
 0.374209 -0.197795 0.0327775
 0.375596 -0.212357  0.028165
 0.302756 -0.235749 0.0181325
 0.314635 -0.242783 0.0169519
 0.209941 -0.306779 -0.021171
  0.171847   -0.31336 -0.0434039
  0.221785  -0.230807 -0.0257231
  0.185194  -0.278556 -0.0421865
 0.215609 -0.223262 -0.019122
  0.269441  -0.239096 -0.0152885
  0.436559  -0.139009 0.00571766
 0.254403 -0.207125 -0.010311
   0.11559  -0.171995 -0.0299949
  0.0676089   -0.151757 -0.00980961
  0.101582  -0.309391 -0.0527656
  0.134137  -0.324181 -0.0331095
  0.148034   -0.32878 -0.0319276
  0.138131  -0.298245 -0.0320349
   0.04554  -0.286694 -0.0717213
  0.110927  -0.302647 -0.0573449
0.0690075 -0.260279 -0.119846
 0.0954899  -0.299948 -0.0781218
 0.0489822  -0.292526 -0.0960787
0.0615688 -0.249175 -0.105173
  0.118166  -0.236482 -0.0804366
   0.24634  -0.159431 0.00352725
 0.263465 -0.153351 0.0150485
  0.289627  -0.192697 -0.0352272
  0.27495 -0.158133 0.0163149
   0.232461    -0.20457 -0.00739277
  0.184919  -0.238459 -0.0201123
  0.241173  -0.220387 -0.0216907
  0.254702  -0.238285 -0.0542234
 0.215528 -0.268897 -0.061449
 0.202189 -0.269427 -0.048945
  0.145497  -0.295794 -0.0664235
-0.159585 -0.261255   -0.1859
 -0.15373 -0.258429 -0.184711
-0.158832 -0.260832 -0.186861
-0.149859 -0.258823  -0.19254
 -0.13369 -0.254697 -0.207994
-0.144468 -0.259755 -0.202182
-0.145309 -0.261692 -0.196251
-0.140418 -0.267515  -0.20681
-0.136282 -0.260492 -0.212927
-0.126246 -0.252895 -0.211989
-0.109546  -0.25238 -0.211858
-0.104513 -0.254704 -0.214407
 -0.11196 -0.253866 -0.213324
-0.104699 -0.245328 -0.182681
-0.123465 -0.265183 -0.214786
-0.130088  -0.25618 -0.201526
-0.132929 -0.259064 -0.203453
-0.140752 -0.261156 -0.203533
-0.121615 -0.247423 -0.171711
-0.126266 -0.248279 -0.174898
-0.106316 -0.247075 -0.180774
-0.101495 -0.245261 -0.172936
-0.100552 -0.269783 -0.143721
-0.0827477  -0.249424  -0.135862
-0.104691 -0.250799 -0.119047
-0.143607 -0.251834 -0.169714
-0.153183 -0.258345 -0.185794
-0.152751 -0.257381 -0.169219
-0.163464 -0.259539 -0.159129
-0.145374 -0.255078 -0.142967
-0.142187  -0.25612  -0.14077
-0.139437  -0.25597 -0.140394
 -0.387064  -0.116253 -0.0482496
 -0.424581  -0.110855 -0.0599407
 -0.412111  -0.112394 -0.0553229
 -0.408525  -0.113587 -0.0542573
-0.400778  -0.11251 -0.053885
 -0.412799  -0.109976 -0.0625956
-0.440321 -0.105593 -0.067921
 -0.446182  -0.110461 -0.0670764
 -0.439105  -0.111636 -0.0625414
 -0.411408  -0.112062 -0.0598304
 -0.363385   -0.12189 -0.0419112
 -0.371646   -0.11507 -0.0421054
 -0.324535  -0.117678 -0.0200246
 -0.360538  -0.117947 -0.0351288
 -0.318703  -0.114352 -0.0217106
 -0.363708  -0.120216 -0.0407176
 -0.382086  -0.113471 -0.0487893
  -0.38898  -0.107959 -0.0477865
 -0.390864   -0.10822 -0.0494822
-0.109456 -0.243573 -0.147089
-0.093138 -0.246152 -0.163689
-0.127113 -0.248623 -0.177324
-0.111972 -0.245916 -0.174972
 -0.12627 -0.247523 -0.166352
-0.131952  -0.24879 -0.170809
 -0.13035 -0.251843 -0.195396
-0.145218 -0.255523 -0.189471
-0.148004 -0.256195 -0.187137
  -0.1448 -0.251221 -0.150488
-0.148728 -0.252257 -0.173279
-0.137184 -0.253084 -0.198307
 -0.451222 -0.0882915 -0.0718737
 -0.453258 -0.0867649 -0.0721341
 -0.446068 -0.0876102 -0.0752368
 -0.436683 -0.0917068 -0.0753202
 -0.446933 -0.0923351  -0.075451
 -0.442161 -0.0916247  -0.070741
 -0.458721 -0.0813825 -0.0725649
 -0.458437 -0.0861313 -0.0790954
 -0.457398 -0.0843655 -0.0724504
 -0.453431  -0.100478 -0.0729415
 -0.448014 -0.0902537 -0.0716497
 -0.465522  -0.109815 -0.0704668
 -0.477334 -0.0786896 -0.0725319
 -0.473725  -0.087717 -0.0662477
 -0.462753 -0.0903238 -0.0735204
  -0.46608 -0.0802281 -0.0752719
 -0.470515 -0.0863254 -0.0744186
 -0.476612 -0.0692827 -0.0696919
  -0.46193 -0.0684666 -0.0733072
 -0.449867  0.0735474 -0.0418244
 -0.436472 -0.0627352 -0.0603034
-0.428592 0.0769823 -0.037315
 -0.458882  -0.056951 -0.0686377
 -0.470791 -0.0633722 -0.0737206
 -0.463578 -0.0650573 -0.0730509
 -0.464483 -0.0664776 -0.0760095
 -0.460553 -0.0745671 -0.0723355
 -0.465096 -0.0728448 -0.0726085
 -0.470474 -0.0681649 -0.0736079
 -0.461406 -0.0674266 -0.0760116
 -0.457508 -0.0774249 -0.0722812
 -0.448168 -0.0665475   -0.07598
 -0.447067 -0.0639274 -0.0669228
 -0.431037 -0.0578436 -0.0770617
 -0.409027 -0.0618123 -0.0698943
 -0.400855 -0.0592135 -0.0686712
 -0.389236 -0.0615326 -0.0594675
 -0.426891 -0.0728653 -0.0604166
-0.387511 -0.064516 -0.060235
  -0.38296 -0.0643812 -0.0591417
 -0.367868 -0.0969088 -0.0351219
 -0.342863  -0.107739 -0.0256866
 -0.393278 -0.0998626 -0.0498553
 -0.381641 -0.0960416 -0.0415368
 -0.404451  -0.103342 -0.0652414
 -0.425213 -0.0952563 -0.0703535
 -0.435073 -0.0916791 -0.0677167
 -0.419962 -0.0950076 -0.0677143
-0.100095  -0.24729 -0.200573
-0.0986468  -0.245326  -0.194666
-0.0881232  -0.248721   -0.19735
-0.0787223  -0.251292  -0.194634
-0.083597 -0.254115 -0.201029
-0.0706636  -0.252069  -0.186474
-0.0688001  -0.249669  -0.180146
-0.0806884  -0.244566  -0.183763
-0.0822877  -0.245499  -0.188006
-0.0332812  -0.257454 -0.0916066
-0.0421136  -0.253805 -0.0981861
-0.0689707  -0.246407  -0.173893
-0.0742455  -0.234654  -0.110104
-0.0677713  -0.250277  -0.146235
-0.0881629   -0.24323  -0.183903
-0.082285 -0.239226 -0.178209
-0.0757577  -0.241541  -0.174162
-0.0565797  -0.248899  -0.159981
-0.0309204   -0.23465  -0.132328
-0.0308755  -0.257288  -0.101372
-0.00820538   -0.224094  -0.0848632
-0.0228841   -0.23275  -0.075139
-0.0198563  -0.265582 -0.0974469
-0.0205138  -0.266784  -0.132239
-0.0309732  -0.258912  -0.149969
-0.0177637  -0.256381  -0.160462
-0.0183712  -0.256868  -0.159343
-0.0262525  -0.258191  -0.164662
-0.0177395  -0.265117  -0.158408
-0.00484138   -0.270084   -0.148422
-0.0181477  -0.264426  -0.152432
-0.0418833  -0.262566  -0.173061
-0.00400975   -0.272787    -0.15673
-0.00620923   -0.271579    -0.15522
-0.00962067    -0.29352   -0.125124
-0.000866193    -0.275385    -0.123872
-0.0198021  -0.288944  -0.138087
-0.0137949  -0.273592  -0.121508
-0.0112206   -0.30036  -0.127099
-0.0279695  -0.281092  -0.137616
-0.0220706   -0.27951  -0.143391
-0.0621759  -0.248431  -0.170487
-0.0457164  -0.252387  -0.159152
-0.0373228  -0.302002  -0.127558
-0.0348591  -0.270897   -0.12319
-0.0331131  -0.273143  -0.141837
-0.0749202  -0.247673  -0.159028
-0.0591007   -0.26926  -0.127642
-0.0783367  -0.247732   -0.15786
-0.0747178  -0.247151  -0.161658
-0.0793828  -0.255997  -0.167753
-0.0867356  -0.258226  -0.206363
-0.0752168    -0.2576  -0.199015
-0.0681397  -0.258855   -0.19697
-0.0793915  -0.256989  -0.200956
-0.0633773  -0.252193  -0.178367
-0.0529566  -0.257273  -0.180103
-0.0944659  -0.251281  -0.196059
-0.0931757  -0.245141  -0.168236
-0.0821464  -0.255752  -0.139999
-0.0557011  -0.263642  -0.110411
-0.0680204  -0.263736  -0.124631
-0.025422 -0.267989 -0.107989
-0.0292746  -0.269489 -0.0915014
-0.0613205  -0.264889  -0.106313
-0.0560599   -0.28761 -0.0959966
-0.0369643  -0.265052  -0.114685
-0.051871 -0.286137 -0.098012
-0.0385402  -0.295879 -0.0892625
-0.0453484   -0.27509  -0.126361
-0.0476594  -0.294085 -0.0909795
-0.0171503  -0.296256  -0.113527
0.00592179  -0.312794 -0.0927266
0.0106564 -0.284178 -0.107189
-0.0185489   -0.31634  -0.102608
-0.0303557  -0.311273 -0.0924441
-0.0408191  -0.301723  -0.126267
-0.0259817  -0.300793  -0.112631
 -0.041413  -0.297992 -0.0852773
 -0.218804  -0.117809 0.00659346
0.0108812 -0.278163 -0.051749
 0.0133091  -0.289417 -0.0829436
-0.0131235  -0.270566  -0.075335
-0.0069982  -0.275433 -0.0568203
-0.00847104   -0.271526  -0.0731124
  -0.255903   -0.142724 -0.00543297
  -0.257696   -0.132673 -0.00136003
  -0.259037   -0.143368 -0.00793746
 -0.284074  -0.128235 -0.0019361
 -0.275669  -0.124084 0.00755429
 -0.28322 -0.134275 -0.016242
  -0.27654   -0.11127 0.00762668
-0.237769 -0.115687 0.0122444
-0.216901 -0.112958 0.0231504
  -0.268859   -0.112887 0.000233525
  -0.242143   -0.122623 -0.00583474
-0.239607 -0.120442 0.0286122
-0.224809 -0.132583 0.0194261
-0.230709 -0.123813 0.0306042
-0.225983 -0.113658 0.0303931
 -0.266345  -0.134543 0.00487616
  -0.28178  -0.145352 0.00504295
 -0.269182  -0.132054 0.00694494
 -0.269108  -0.136534 0.00999344
-0.275607 -0.144966 0.0096705
-0.232005 -0.135794 0.0255961
-0.265152 -0.134615 0.0120597
-0.262221 -0.133998 0.0141177
-0.266753 -0.132341 0.0105339
-0.256708  -0.13086 0.0176438
-0.239941 -0.136213 0.0233804
-0.216125 -0.119772 0.0366019
-0.219801  -0.13129  0.021263
-0.208774 -0.132517 0.0302276
-0.190121 -0.116728 0.0451201
-0.195464 -0.117534 0.0445765
-0.196385 -0.116896 0.0431487
  -0.1651 -0.114362 0.0516439
 -0.16002 -0.114046 0.0437057
 -0.18623 -0.110341 0.0386723
 -0.18984 -0.110822 0.0375309
-0.211711 -0.111931 0.0299097
-0.207445  -0.11224  0.031743
-0.196788 -0.110428 0.0301259
-0.207681 -0.113001 0.0239342
  -0.17696 -0.0918025   0.019971
 -0.202391 -0.0967528  0.0183045
  -0.178367  -0.0949349 4.12434e-05
 -0.205612   -0.08529 0.00626374
-0.213656 0.0332506 0.0350187
-0.215093 0.0315545 0.0499123
-0.216743 0.0239182 0.0406923
 -0.169755 -0.0884747  0.0256491
-0.206066 0.0131748   0.03383
-0.215102 0.0189353 0.0366187
-0.246403 0.0365425 0.0437569
-0.222021 0.0400372  0.049529
 -0.22074 0.0151724 0.0307708
-0.232529 0.0326399 0.0411446
-0.273563 0.0250364 0.0177403
-0.229232 0.0150543 0.0313673
-0.248329 0.0410381  0.032204
-0.276243 0.0363618  0.030843
-0.266006  0.033898 0.0328257
-0.277379  0.032088 0.0179484
-0.290893 0.0353776 0.0157325
-0.292767 0.0381731 0.0184862
 -0.279752 -0.0815431 -0.0214019
 -0.292676 -0.0834623 -0.0216307
 -0.290833  -0.105312 -0.0158412
 -0.284098 -0.0862059 -0.0158304
  -0.259531  -0.0817746 -0.00239725
-0.244523 -0.102845 0.0166389
-0.220757  0.012588 0.0280948
 -0.284655 -0.0814983  0.0107702
 -0.251627 -0.0992316  0.0100264
-0.301606  0.022904 0.0162892
 -0.329777  0.0487475 0.00728147
 -0.315645  0.0429854 0.00967495
  -0.31055  -0.102167 -0.0155228
 -0.289342 -0.0911887 -0.0154218
 -0.308223 -0.0896907 -0.0235009
-0.306314 0.0392505 0.0102762
  -0.320213   0.0324766 -0.00581633
   -0.33314   0.0430549 -0.00332706
 -0.334915  0.0399324 -0.0137402
  -0.318633   0.0418428 -0.00345126
  -0.317929   0.0349644 4.66049e-05
 -0.303563   0.034989 0.00593559
 -0.333973  0.0507851 0.00703906
  -0.341548   0.0421372 0.000810943
 -0.412434  0.0646552 -0.0130687
  -0.416807   0.0597613 -0.00529394
 -0.395179  0.0688468 -0.0147419
 -0.447475  0.0636112 -0.0301239
  -0.42647  0.0701655 -0.0264048
-0.432638 0.0651643 -0.025395
 -0.435555  0.0690808 -0.0295233
 -0.439141  0.0649742 -0.0286276
 -0.446838  0.0629739 -0.0297125
 -0.448447  0.0710849 -0.0393847
 -0.461373  0.0681425 -0.0444837
 -0.414891  0.0728002 -0.0304938
 -0.425652  0.0714658 -0.0273088
 -0.347491  0.0519963 0.00359566
  -0.38507 -0.0751027 -0.0521545
 -0.375594 -0.0722275 -0.0513607
  -0.36998 -0.0853153 -0.0405657
 -0.371299 -0.0899293 -0.0384863
 -0.385586 -0.0886181 -0.0443736
  -0.369348   0.0552889 -0.00483716
  -0.38951  0.0625752 -0.0112562
  -0.369717   0.0505239 -0.00679686
  -0.351459   0.0317913 -0.00488756
 -0.373843 -0.0900492 -0.0337872
  -0.371431    0.050529 -0.00209661
  -0.372601   0.0513351 -0.00265685
  -0.387657   0.0616154 -0.00873629
 -0.410924 -0.0791793 -0.0454879
 -0.417143 -0.0733938 -0.0376823
 -0.409728 -0.0924299  -0.047862
 -0.398142  -0.100704 -0.0509556
 -0.406245 -0.0816873 -0.0469443
 -0.373257 -0.0818396 -0.0150422
 -0.410359  -0.073882 -0.0341661
 -0.405593 -0.0761347 -0.0351239
 -0.361652 -0.0874678 -0.0124672
-0.349597 -0.104768 -0.027496
  -0.363976  -0.0826667 -0.00738528
  -0.34479 -0.0966742 -0.0157085
  -0.315894  -0.0953188 -0.00464484
  -0.34203 -0.0988563 -0.0176266
 -0.347866 -0.0951676 -0.0152298
 -0.364051 -0.0901303 -0.0189221
  -0.40446  -0.104729 -0.0528445
 -0.303623 -0.0854716 -0.0320111
 -0.428162 -0.0869851 -0.0645015
  -0.46061 -0.0759785 -0.0723128
 -0.470569 -0.0719346 -0.0678915
 -0.423428 -0.0727949  -0.040662
 -0.409419  -0.104274 -0.0547572
 -0.423398  -0.106359 -0.0590155
 -0.467458  -0.085569 -0.0705195
 -0.458739 -0.0877453 -0.0722932
 -0.433772  -0.111257 -0.0595531
 -0.391366  -0.113425 -0.0452254
 -0.437733  -0.112053 -0.0607801
 -0.439759  -0.112416 -0.0614537
 -0.429716   -0.10921 -0.0595057
 -0.428852  -0.110801 -0.0572214
 -0.362793  -0.125726 -0.0358859
 -0.389442  -0.119728 -0.0421364
 -0.382404  -0.111143 -0.0434344
 -0.362281  -0.119378 -0.0386717
 -0.339088  -0.120827 -0.0263885
 -0.302971  -0.124053 -0.0161051
 -0.299154  -0.126631 -0.0202394
-0.325447 -0.124546 -0.022009
-0.322994 -0.127077 -0.026543
 -0.326401  -0.127063 -0.0273957
 -0.338185  -0.124803 -0.0265652
  -0.34765  -0.133306 -0.0304858
 -0.302585  -0.131116 -0.0074947
 -0.293332   -0.13277 -0.0139202
  -0.293289   -0.125293 -0.00652142
  -0.295408   -0.129867 -0.00292188
 -0.283926  -0.145283 0.00374234
 -0.28587 -0.135868 0.0029965
-0.283168  -0.13709  0.004542
  -0.300197   -0.140214 -0.00549794
 -0.289821  -0.136676 0.00129951
    -0.29197    -0.133629 -9.02234e-05
 -0.315069  -0.122354 -0.0163603
-0.327825 -0.128324  -0.02357
 -0.318608  -0.129954 -0.0194911
 -0.337644  -0.119403 -0.0256106
  -0.317861     -0.1217 -0.00794235
 -0.340668  -0.111694 -0.0252986
 -0.408219   -0.10868 -0.0501312
 -0.419045  -0.111363 -0.0498268
 -0.377682  -0.112046 -0.0419084
 -0.381865  -0.109124 -0.0436926
-0.340829 -0.102033 -0.023673
   -0.317606    -0.125829 -0.000617787
 -0.289639  -0.132992 0.00307839
 -0.291526  -0.127801 0.00347688
  -0.320877   -0.113579 -0.00137039
 -0.315328  -0.107067 -0.0122818
-0.330166 -0.122101 0.0107418
-0.284999 -0.135974 0.0106772
-0.294203 -0.126671 0.0125618
-0.294309 -0.103603 0.0340847
 -0.27919  -0.10465 0.0438508
  -0.30403  -0.101326 0.00644074
  -0.300574   -0.113797 -0.00273297
  -0.317863   -0.114195 0.000250839
 -0.297991 -0.0982315  0.0206861
 -0.285624 -0.0939649  0.0312516
  -0.29353 -0.0980996  0.0250148
-0.289785 -0.102041 0.0123102
 -0.307179 -0.0985833 0.00911864
  -0.338269  -0.0958558 -0.00587985
 -0.347314 -0.0947402 -0.0127459
  -0.343758  -0.0947616 -0.00686463
   -0.34077  -0.0960602 -0.00867654
 -0.331018 -0.0961499 0.00119419
 -0.311614 -0.0977484  0.0071727
 -0.324834 -0.0967802 0.00315618
 -0.297168  -0.102273 0.00724825
-0.296374 -0.102151 0.0079714
 -0.278844 -0.0920895  0.0272165
 -0.277186 -0.0844999  0.0358705
 -0.265895 -0.0843132  0.0402898
-0.256805 -0.107088 0.0318903
-0.247194 -0.101704 0.0333412
-0.272128 -0.103631 0.0405447
 -0.286356 -0.0934004  0.0502144
 -0.274755 -0.0863129  0.0460693
-0.270334  -0.13705 0.0462099
-0.269475 -0.133115 0.0376376
-0.259911 -0.135738  0.049463
-0.237998 -0.132627 0.0458003
-0.250093 -0.142918 0.0314835
-0.249269 -0.154041 0.0392922
-0.251211 -0.143349 0.0294106
-0.253192 -0.139485 0.0254357
-0.259446  -0.14549 0.0294375
-0.272652 -0.143325 0.0110561
 -0.277425  -0.124094 0.00662761
-0.259172 -0.148759 0.0203285
-0.192203  -0.12253 0.0483722
-0.211145 -0.119517 0.0394003
-0.218206 -0.126301 0.0355295
-0.174216  -0.13543 0.0467035
-0.131072  -0.12067 0.0497928
-0.128018 -0.115785 0.0371731
-0.136742 -0.104635 0.0259777
 -0.132409 -0.0825635  0.0299657
-0.0789502 -0.0972632  0.0526201
-0.0896309 -0.0776366  0.0403385
-0.0237791 -0.0869254   0.118864
-0.0163996 -0.0877959   0.111193
-0.00980175   -0.106996    0.121368
-0.00578727   -0.117536    0.111335
0.0284594 -0.128327 0.0804934
-0.087784 -0.111916 0.0597782
-0.112186 -0.124325 0.0625134
-0.0943279  -0.130921  0.0450846
0.000220036   -0.145919   0.0542004
-0.0441181  -0.120445  0.0582167
-0.118283 -0.152363  0.081753
-0.119548 -0.147919 0.0833506
0.0123896 -0.187371 0.0818945
-0.00163028   -0.128531   0.0814627
-0.0177909   -0.11673   0.103774
0.0259084 -0.136757  0.106083
-0.0244042  -0.137631  0.0936235
 -0.15824 -0.123947 0.0698453
 -0.165883 -0.0947975  0.0631808
 -0.168843 -0.0802538   0.067774
-0.191717 -0.113811 0.0545376
-0.212755 -0.111258 0.0493551
-0.198922 -0.115977 0.0528911
-0.207246  -0.12982 0.0519369
-0.200598 -0.135212 0.0593594
 -0.19769 -0.141766 0.0637605
-0.180075 -0.127909 0.0533004
-0.193313 -0.129901 0.0594539
-0.209899 -0.141025 0.0518697
 -0.16784 -0.122451 0.0641619
-0.162288 -0.130511 0.0636483
 -0.15231 -0.141933 0.0663429
 -0.12845  -0.14744 0.0746969
 -0.16566 -0.139602 0.0700649
-0.0487449  -0.154877    0.11023
-0.0563733  -0.148481    0.10705
-0.0740556   -0.15237   0.105951
-0.0963547  -0.136316   0.101976
-0.0920772  -0.135107   0.100254
-0.0694977   -0.12794   0.109197
-0.0875715  -0.154309  0.0987475
-0.091989 -0.145883 0.0990215
-0.0807396  -0.121955   0.105959
-0.0849442  -0.107246   0.125837
-0.0753534  -0.125426   0.108316
-0.0719027  -0.123699   0.109398
-0.0350023  -0.117898   0.114845
-0.0489626  -0.123131   0.112675
 -0.07809 -0.126812  0.107253
-0.0310518  -0.153664   0.115578
-0.0336428  -0.149375   0.114548
-0.0279965  -0.174062   0.094073
0.0226558 -0.124049  0.122834
-0.030666 -0.172486  0.116601
0.0245676 -0.182757 0.0926705
-0.00501802   -0.185786    0.104235
-0.0117354  -0.185647   0.102708
-0.00408172    -0.17464    0.104568
-0.00475602   -0.164485    0.115673
-0.00918762   -0.133789    0.154485
0.00546252  -0.145554    0.15961
-0.0129076  -0.142092   0.156022
-0.0171481  -0.135665   0.158157
-0.0230653   -0.12451   0.160132
-0.00380534    -0.14091    0.161065
0.00708659  -0.086546   0.126817
8.38186e-05   -0.100713       0.144
0.00891761 -0.0583861   0.132084
0.00194869 -0.0711432   0.135191
0.00188847 -0.0844411   0.126475
-0.0104779 -0.0802856   0.125081
-0.0311986 -0.0857625   0.175285
-0.0328753 -0.0893078   0.158485
-0.0293713 -0.0779457   0.141962
-0.0462901 -0.0874417   0.143941
-0.0854624 -0.0974375   0.154504
-0.0322078  -0.117382   0.147217
-0.0438872    -0.1216   0.154975
-0.0533693  -0.113339   0.151702
-0.0732544  -0.113041   0.137724
-0.0494163  -0.109531   0.137737
-0.040687 -0.123396  0.157801
-0.022199 -0.122415  0.149824
-0.0341896  -0.123609    0.15734
-0.0386972  -0.130695   0.167748
-0.115329  -0.12733  0.111209
-0.113153 -0.137771  0.101724
-0.108103 -0.120179 0.0972665
-0.124752  -0.11319   0.10255
-0.134521  -0.11164   0.10023
-0.150042 -0.121599 0.0920528
-0.155689 -0.128294 0.0755153
 -0.11159 -0.114777  0.104819
-0.163606 -0.131991 0.0760536
 -0.15987 -0.116049 0.0841617
-0.159583 -0.126466 0.0726163
-0.183149 -0.127983 0.0628666
-0.192496 -0.128928 0.0588813
-0.186755 -0.118722 0.0635448
-0.184803 -0.140118 0.0792564
-0.206953  -0.13223 0.0571451
-0.198524 -0.134746 0.0666002
-0.252875 -0.136049 0.0589861
-0.202875 -0.136419 0.0584545
-0.126411 -0.135519 0.0837703
-0.122598 -0.142462 0.0835707
-0.144513  -0.13078 0.0806747
-0.158501 -0.128041 0.0744016
-0.189159 -0.143564 0.0694393
 -0.21965  -0.10469 0.0594142
 -0.217231 -0.0937514  0.0746779
-0.137545 -0.122854 0.0769735
-0.119992 -0.122461 0.0889501
 -0.183406 -0.0940179  0.0715624
-0.220601 -0.105488 0.0560229
 -0.243462 -0.0979196  0.0618619
 -0.26063 -0.103453 0.0449764
 -0.25399 -0.103409 0.0595877
 -0.239761 -0.0995862  0.0606101
-0.226816 -0.101888  0.065825
-0.238178 -0.097106 0.0686206
 -0.16523 -0.108707 0.0764015
-0.156736  -0.11998 0.0774468
-0.207825 -0.105901 0.0693601
-0.200283 -0.105639 0.0809731
-0.180394 -0.109609 0.0963246
-0.165571 -0.116196 0.0832309
-0.126236 -0.104251  0.110758
-0.124637 -0.109393   0.10678
-0.134374 -0.105818  0.105951
-0.114094 -0.107249  0.115995
-0.100657 -0.103594  0.135482
-0.113722 -0.104057  0.115437
-0.0993342  -0.104629   0.132638
-0.0908581 0.00443395   0.119478
 -0.127316 0.00834312   0.114434
 -0.143862 0.00747837   0.116478
-0.142751  0.016306  0.101262
-0.149519 0.0122353  0.106194
 -0.148949 0.00491569   0.112488
 -0.165806 0.00736456   0.111397
-0.166745 0.0132789  0.104813
-0.171428  0.018065 0.0945982
-0.177724 0.0194749 0.0901739
 -0.15835 0.0155037  0.100556
-0.159404  0.017458 0.0969065
-0.236644 0.0223881 0.0595304
-0.221291 0.0138893 0.0749137
-0.260337 0.0136164 0.0474987
-0.0983849  -0.020832   0.084662
-0.0749476 -0.0340181  0.0862431
-0.0812922 -0.0362008  0.0916392
-0.146323 0.0183117 0.0938231
 -0.110387 0.00492848  0.0984338
-0.139064 -0.012199 0.0695373
-0.180543 0.0257333  0.069786
-0.244282 0.0183175  0.073522
-0.232724 0.0101769 0.0863716
-0.232235 0.0251223 0.0701072
-0.256524 0.0361345  0.040779
-0.260878 0.0268837 0.0782214
-0.263446 0.0295751 0.0623165
-0.282921 0.0356346 0.0369683
-0.273498 0.0355611 0.0366214
-0.295106 0.0388658 0.0464633
-0.313677 0.0438475 0.0445734
-0.319285 0.0523119   0.02368
-0.271447 0.0332211 0.0482661
-0.270704  0.013549  0.057968
-0.268262 0.0255816 0.0569586
-0.191173  0.029509 0.0761465
 -0.21509 0.0117856 0.0921946
-0.185736 0.0403385  0.089164
-0.179414 0.0246359 0.0782123
-0.194336 0.0123109  0.104687
 -0.17359 0.0114145   0.11233
-0.186037 0.0122443  0.110003
-0.149693 0.0167312 0.0993224
-0.165981 0.0284591 0.0947587
-0.163882 0.0167543 0.0979312
-0.155139 0.0113617  0.108208
-0.152299 0.0127926  0.106353
-0.114264 0.0102199  0.112846
-0.114621 0.0192455  0.113722
-0.135527 0.0123972  0.115284
 -0.12934 0.0247459  0.110526
-0.107721 0.0260235  0.120834
-0.103099 0.0203967  0.119006
-0.0129007 -0.0189717   0.209153
-0.00204178  -0.0208089    0.134333
 0.0184179 -0.0363546   0.137269
-0.0652864 0.00245434   0.160219
  -0.0361098 -0.000875393     0.147384
-0.0606578  0.0179146   0.131204
 -0.060752 -0.0271444  0.0946685
-0.0513956 -0.0307617  0.0989393
 -0.0758111 -0.00602253     0.13112
-0.0710538 -0.0241892   0.113104
-0.0929966  -0.011073   0.138515
 -0.086648 -0.0130425   0.147338
 -0.0804923 -0.00161321    0.126606
-0.0837745  0.0225997   0.127331
-0.0915378  0.0181441   0.147728
-0.0877819  0.0430788  0.0733191
-0.118664 0.0309314 0.0690759
 -0.119256 0.00517457   0.076783
 -0.0977796 -0.00266927   0.0811589
-0.0795785  -0.066271  0.0604987
-0.0808332 -0.0533617  0.0581333
-0.0399707 0.00930449  0.0849834
-0.00778347  -0.0414129    0.128607
-0.0146966 -0.0521205  0.0972715
-0.00969134  -0.0474443    0.076625
0.00227343  0.0159143   0.128165
-0.0670388  0.0243201  0.0856882
 -0.0623569 -0.00830346    0.096361
-0.0159192  0.0354637  0.0621686
-0.0274068 -0.0336587  0.0525355
-0.0328728 -0.0410939  0.0672586
-0.0609404  -0.046525  0.0689397
-0.0343667 -0.0374164  0.0576104
-0.0335305  -0.031976  0.0501364
-0.0766269 -0.0464173  0.0404707
 -0.081289 -0.0519336  0.0425673
-0.0740648  -0.054261  0.0587241
-0.0730487 -0.0490196  0.0567913
 -0.146481 0.00992529   0.058098
-0.0646072 -0.0405407  0.0523468
 -0.0613256 -0.00216243   0.0661724
 -0.064026 0.00344773  0.0863152
-0.146558 0.0116569 0.0646399
-0.159739 0.0223213  0.031433
-0.197032 0.0110501 0.0373049
 -0.202775 0.00446499  0.0306286
-0.158081  0.014224 0.0484943
-0.150165 0.0119515 0.0543707
-0.269125 0.0287583 0.0347441
-0.274976 0.0336477 0.0312869
-0.204558 0.0168033 0.0397172
-0.189532 0.0279645 0.0562751
 -0.233322 0.00110309  0.0536141
-0.163787  0.014391 0.0589758
-0.176549  0.025719 0.0632371
 -0.19571 -0.111057 0.0352897
  -0.16387 0.00310261  0.0514828
 -0.173597 0.00478898  0.0461434
-0.256943 0.0186255 0.0445124
-0.213234 -0.112953 0.0308582
-0.292437  0.041434 0.0238384
-0.300201 0.0416082 0.0218263
-0.306765 0.0417269 0.0205678
 -0.331669  0.0518614 0.00880303
 -0.341093  0.0550618 0.00652925
-0.347195 0.0546086 0.0044969
  -0.3245 0.0472005 0.0114841
 -0.344634  0.0501998 0.00548637
-0.316087 0.0475554 0.0148346
-0.281938 0.0380786 0.0282082
-0.272524 0.0331098 0.0360125
-0.289712 0.0377831 0.0283937
-0.299606 0.0343736 0.0273892
-0.296646 0.0387691 0.0246849
 -0.28197 0.0386491 0.0308486
-0.289338 0.0329237 0.0334779
 -0.30293  0.036586 0.0247559
-0.308563 0.0391338 0.0213918
-0.311439 0.0411517 0.0194751
-0.340021 0.0540645 0.0160294
-0.322861 0.0528075  0.021542
-0.315128 0.0502744 0.0297604
-0.322172 0.0498182 0.0276123
 -0.34701 0.0539818 0.0202877
-0.334056 0.0556064 0.0163177
 -0.33234 0.0523009 0.0226669
-0.352341 0.0536424 0.0167512
  -0.35321  0.0586789 0.00820859
 -0.360888   0.058564 0.00978466
   -0.380847    0.0607412 -0.000284632
 -0.360961    0.06169 0.00321951
 -0.368611  0.0617975 0.00214854
-0.331129 0.0567302 0.0141545
-0.338208 0.0576171 0.0120115
-0.348693 0.0572128 0.0106944
 -0.358444  0.0574307 0.00136345
   -0.366716    0.0529933 -0.000963094
   -0.38168    0.065888 -0.00799552
 -0.377276  0.0579655 0.00734031
  -0.388183   0.0622935 -0.00455462
  -0.33938  0.0625561 0.00870621
-0.346646 0.0742389 0.0196991
-0.315833 0.0650782 0.0286138
-0.339426 0.0683048 0.0149765
-0.289559 0.0542889 0.0313013
-0.332651 0.0690113 0.0253058
-0.319555 0.0599727 0.0199077
 -0.30146 0.0530683 0.0233013
-0.303956 0.0571792  0.027123
-0.262464 0.0571759 0.0456884
-0.262092 0.0668458 0.0522709
-0.305879 0.0614207 0.0307606
-0.255615  0.177657   0.04883
-0.255399  0.171487 0.0509199
-0.257845  0.190885 0.0467678
-0.271493  0.188673 0.0588693
-0.269097  0.189843 0.0561651
-0.303952  0.197717 0.0393267
-0.311022  0.194933 0.0439885
-0.338934  0.208732  0.028739
-0.329444  0.209523 0.0273397
-0.336207  0.205901  0.026555
-0.324958  0.067241 0.0243637
-0.316185 0.0613932  0.024278
-0.302026  0.182682 0.0406457
-0.240479  0.170718 0.0539234
-0.252969  0.160647  0.053213
-0.242996  0.179108 0.0489587
-0.232579  0.162993 0.0587034
-0.237949   0.16236 0.0570887
-0.226116  0.167117 0.0585078
-0.220602  0.166004 0.0610779
-0.234777  0.172921 0.0621739
-0.242141  0.173665 0.0655659
 -0.21493 0.0439451 0.0593662
-0.233496 0.0605052 0.0731739
-0.244187 0.0666488 0.0858135
-0.244796  0.066252   0.08534
-0.229015 0.0622641 0.0891983
-0.240811 0.0580818 0.0746782
-0.233716 0.0558102 0.0762633
-0.228709 0.0591716  0.082793
-0.213218  0.149212 0.0704666
-0.249192 0.0633575 0.0533382
-0.257072 0.0661693 0.0545665
-0.244189 0.0776356 0.0617893
-0.200773 0.0353811  0.049778
-0.156826 0.0453994 0.0515434
-0.146631 0.0491028 0.0534234
-0.199176 0.0391795 0.0712612
-0.221988 0.0784926 0.0682779
-0.187091  0.150006 0.0590894
-0.163789   0.13603 0.0547348
-0.160625  0.132987 0.0536986
-0.104205  0.148284  0.078234
-0.100828  0.160026 0.0784828
-0.0184103    0.15478  0.0577278
-0.0721225   0.158062  0.0897085
-0.0738319  0.0611509  0.0639683
 -0.11857 0.0262975 0.0914881
-0.168429 0.0323459 0.0848725
-0.146033  0.029282  0.103063
-0.121856 0.0218943  0.112215
-0.0451182   0.110189  0.0910703
-0.081077  0.130124 0.0950129
-0.0313413   0.114103   0.102949
-0.0762321   0.142266  0.0988812
-0.150224  0.148823 0.0830896
-0.0601956   0.165505  0.0873377
-0.173185  0.148757 0.0871199
 -0.19243  0.155857 0.0783834
-0.211424  0.153012  0.093973
-0.210182  0.149344 0.0739928
-0.156838  0.152174 0.0788768
-0.187014   0.14873 0.0714219
-0.201901 0.0558622 0.0921772
-0.191632   0.03691 0.0776728
-0.185256 0.0389673 0.0877397
-0.199198 0.0524483 0.0924035
-0.201546 0.0534489 0.0914663
-0.0508454   0.116305   0.113899
-0.0454899   0.114697  0.0999697
-0.0692671    0.12275   0.121959
-0.0538473    0.14217   0.109729
-0.0526998   0.115606   0.116588
-0.0556707   0.119087   0.115039
-0.0371462    0.16658   0.120628
-0.032428  0.167387  0.121549
0.000676603      0.1626    0.100863
0.0360992  0.160204 0.0948441
0.019351 0.154733 0.129044
0.0177433  0.128358  0.093987
-0.030412  0.129544  0.110915
-0.0423145   0.135276   0.110877
-0.0447915   0.139579   0.111666
-0.0321464    0.12947   0.111076
-0.00178913    0.125613    0.108726
0.0184005  0.147395  0.132118
0.0299073 0.0618224  0.119261
0.00916492  0.0252086   0.126138
0.0186857 0.0731166  0.111977
0.0163009 0.0336301  0.125357
0.0099211  0.113558 0.0999322
0.0135726 0.0987138  0.104152
-0.0106589   0.107625   0.146309
-0.014681 0.0990094  0.136575
-0.0214939    0.11883   0.131067
-0.0402112   0.112534   0.118865
-0.00844861   0.0315462    0.117324
-0.0159703  0.0223745   0.119658
-0.0636962  0.0252965   0.133121
-0.0569003   0.122192   0.104584
-0.0655505   0.120018   0.112885
-0.081238  0.125068  0.113455
-0.0839054   0.128146   0.112212
-0.0982796  0.0377871   0.129652
-0.0902817  0.0371086   0.130581
 -0.11411 0.0270697  0.118243
-0.103745  0.131457   0.11251
-0.146224  0.138435  0.108431
-0.140332 0.0296619  0.108521
-0.128537   0.13434  0.112043
-0.15087 0.136914 0.108777
-0.112434  0.137362  0.101655
-0.111936 0.0419594  0.124246
-0.172129 0.0426369  0.102732
-0.155331  0.142872 0.0989347
-0.208607 0.0520258 0.0894368
-0.20317 0.143449 0.100855
-0.179449  0.144653 0.0983946
-0.103336 0.0194635    0.1182
-0.0599441 0.00537898   0.105047
-0.0849273  0.0194522   0.124933
-0.132534  0.138138  0.106154
-0.0636237   0.123855   0.100891
-0.135421 0.0297268  0.109014
-0.195107  0.156104  0.102996
-0.176634  0.154197 0.0944973
-0.178528  0.173583   0.10132
-0.197031  0.176324 0.0821291
-0.206669  0.159716 0.0940179
-0.206073  0.150371  0.105418
-0.203922   0.15119  0.107897
-0.199187  0.155329  0.103172
-0.201335  0.153701 0.0979695
-0.115863  0.151688  0.100196
  -0.1126  0.140351 0.0943636
-0.144912  0.150823  0.102444
-0.132915  0.149584  0.104134
-0.122798  0.141419 0.0960685
-0.119386  0.140641 0.0963149
-0.0994196   0.136259  0.0968199
-0.0949679   0.143874   0.101463
-0.0924408   0.138282  0.0977763
-0.0980166   0.135116  0.0987233
-0.0916132   0.131848   0.102618
-0.0938291   0.131951   0.104494
-0.0799717   0.135294   0.107328
-0.0836107   0.132609  0.0971929
-0.078826  0.141218  0.102692
-0.0883033   0.140913   0.100678
-0.104896  0.143039  0.086801
 -0.11562  0.144484 0.0854834
-0.110974  0.143037 0.0861598
-0.124647  0.147401 0.0829615
-0.131705  0.149444 0.0820411
 -0.12661  0.147072 0.0857138
-0.158751  0.175212  0.100574
-0.176355  0.181216  0.096844
-0.184832  0.177892 0.0837966
  -0.2077  0.178567 0.0804342
-0.210687  0.186009 0.0791364
-0.207698  0.189883 0.0865807
 -0.19995  0.178964 0.0765643
-0.206075  0.181083 0.0794179
 -0.19544  0.180489 0.0818359
-0.242153    0.1928   0.06713
-0.229875  0.186086 0.0717734
-0.255569  0.190503 0.0485762
-0.251834  0.198575 0.0651871
 -0.24404  0.198722 0.0683099
-0.230357  0.191686 0.0671505
-0.240277  0.192093 0.0614088
-0.150507  0.163429 0.0777857
-0.183224  0.177845 0.0778923
-0.187285   0.18633 0.0841722
-0.163792  0.180911  0.076158
-0.162321  0.180081 0.0773059
-0.185319  0.176341 0.0654214
-0.193306  0.179513 0.0633617
-0.105941  0.288919 0.0744269
-0.104627  0.284097 0.0702165
-0.117885  0.286422 0.0669614
-0.158479  0.314599 0.0667964
-0.197706  0.190497 0.0666061
-0.174394  0.304088 0.0570757
-0.169556  0.303104 0.0620853
-0.170422   0.30361 0.0586525
-0.157673  0.312591 0.0652509
-0.129282  0.290471 0.0642234
-0.133801  0.291601 0.0690466
-0.130874  0.283134 0.0758062
-0.120428   0.28077 0.0738858
-0.107103   0.27056 0.0811118
-0.120237   0.27845 0.0793324
-0.100828  0.262001  0.075763
-0.100172  0.243183 0.0853489
-0.106018  0.277612 0.0806287
-0.0983404   0.264898  0.0859166
-0.0633574   0.257583   0.110502
-0.0551505   0.251873  0.0780943
-0.0368802    0.26073  0.0939386
-0.0539426   0.246735  0.0801452
-0.0456746   0.244709  0.0803191
-0.0504256   0.241188  0.0926625
-0.0395932   0.236109  0.0927093
-0.0240174   0.238034  0.0847031
-0.0164158   0.232676    0.10043
-0.0173514   0.228272   0.104744
 -0.0101 0.220228 0.109616
0.00403884   0.215463  0.0945381
0.0133601  0.210824 0.0974269
0.0103423  0.214634  0.106121
0.0130364  0.227621 0.0886808
0.00181542   0.238872  0.0960927
-0.00576526    0.240757   0.0894501
-0.00426221    0.238628   0.0925745
-0.0117125   0.239658  0.0988431
-0.0166781   0.246393  0.0882611
-0.0142817   0.249785  0.0909106
-0.00764922    0.242304   0.0891286
-0.013161  0.244654 0.0876103
-0.00570637    0.245391   0.0940012
-0.0388288   0.259884  0.0864969
-0.0462748   0.257141  0.0806361
-0.055854  0.268559 0.0880014
-0.0579296   0.277641  0.0965152
-0.0437582   0.266579  0.0920552
-0.0351393    0.25531  0.0785808
-0.0414368   0.262877  0.0742916
-0.0502076   0.259781  0.0768341
-0.0349901   0.262449   0.074037
-0.00214973      0.2456    0.081915
-0.0479159   0.267271  0.0924411
-0.0500968   0.271143   0.097564
-0.0319277   0.251373  0.0828339
-0.0383935    0.26186  0.0909689
-0.0727343   0.244284  0.0902974
-0.0692473    0.23977  0.0983081
-0.0456524   0.238172  0.0859012
-0.0706141   0.233089  0.0848291
-0.0688691   0.236905  0.0836528
-0.0794196   0.241488  0.0909358
-0.0735877   0.257801   0.075636
-0.0783192   0.257896  0.0773906
-0.0834683   0.273337  0.0815199
-0.0627078   0.274402   0.091196
-0.0814432   0.272688  0.0730035
-0.163412  0.323429 0.0705807
-0.156691  0.317646 0.0512985
-0.166141  0.318158 0.0618738
-0.0830056   0.259749  0.0710784
-0.130597  0.268427 0.0727391
-0.160894   0.18911 0.0737434
-0.117747  0.176493 0.0667086
-0.143511  0.161959 0.0775003
-0.103496  0.174437 0.0742958
-0.093312  0.174549 0.0748356
-0.041421  0.239397 0.0778937
-0.0608222   0.240351   0.068513
-0.0704166   0.233789  0.0845187
-0.00656304    0.261919   0.0797655
 -0.10201  0.284895 0.0656506
-0.0536313    0.27048  0.0707907
-0.0684602   0.290609  0.0621639
-0.0847339    0.29433  0.0591369
-0.0339264   0.273957  0.0709242
-0.0159635   0.272399  0.0686606
-0.071641  0.291425 0.0619106
-0.0970204   0.305612   0.054685
-0.114067  0.310493 0.0515368
-0.0786953   0.297802  0.0550011
-0.0629778   0.292502  0.0603121
-0.011159  0.214694 0.0688515
-0.0213393   0.213032  0.0617696
-0.0307785   0.217955  0.0657787
0.0117997    0.1709 0.0683761
-0.108802  0.184972 0.0661948
-0.124393  0.181113    0.0629
-0.151007   0.17839 0.0596553
-0.128448  0.188547 0.0583408
-0.135936  0.192815 0.0551891
 -0.1491 0.188709 0.055757
 -0.16466  0.183747 0.0573585
-0.170024  0.190675 0.0552877
-0.156517  0.320864  0.050212
-0.147159  0.321375 0.0499375
-0.141911  0.317634 0.0518064
-0.133184  0.322252 0.0504159
-0.165728  0.330873 0.0507441
-0.168593  0.323962 0.0498191
-0.200585  0.345108 0.0436621
-0.196318  0.339524 0.0452734
-0.202549  0.342555 0.0435134
-0.206705  0.342673 0.0421897
-0.221697  0.350672 0.0401048
-0.188727  0.327081  0.046978
-0.206631  0.322279   0.04335
-0.226464  0.324224  0.046426
-0.178813  0.322771 0.0496233
-0.179467  0.325095 0.0487843
-0.180061  0.326519 0.0484381
-0.189711  0.325629 0.0472069
-0.214513  0.319132  0.042932
-0.230215  0.325664 0.0498976
 -0.17663  0.319215 0.0508647
-0.175955  0.328726 0.0585827
 -0.18607  0.311134 0.0509328
-0.223873  0.302832  0.055783
-0.183048  0.298023 0.0557453
-0.184646  0.302487 0.0534176
  -0.1737   0.30291 0.0552317
-0.179964  0.185091  0.064979
-0.211227  0.187734 0.0594015
 -0.22426  0.186494 0.0550297
-0.241413  0.191362  0.048967
-0.180963  0.202266 0.0714206
-0.194386  0.205968 0.0664963
-0.185529  0.186697 0.0634972
-0.196994  0.186866 0.0605978
 -0.21544  0.189462 0.0550664
-0.197528   0.19829 0.0608916
-0.24666 0.196136 0.045466
-0.33346 0.212538 0.030501
-0.252789  0.197072 0.0440919
 -0.27128  0.198838 0.0412089
-0.351451  0.225782 0.0266529
-0.360705  0.223664 0.0120264
-0.362993   0.22548 0.0107212
-0.348279  0.214865 0.0187078
-0.362919  0.217703 0.0232098
-0.343811  0.211064 0.0268298
-0.326709  0.208255 0.0320179
 -0.27244  0.198265 0.0505216
-0.281275  0.197614 0.0502772
-0.257134  0.199969 0.0645404
 -0.25474   0.19426 0.0456686
-0.283571  0.208377 0.0470052
-0.289994  0.211206 0.0432447
-0.243955  0.327595 0.0574166
-0.242707  0.327905 0.0554971
-0.241051    0.3292 0.0499131
-0.253683  0.332024 0.0559751
-0.253688  0.334266 0.0552937
-0.250763  0.330873 0.0537049
-0.298238  0.211659 0.0352559
-0.325565  0.218541 0.0243391
-0.268664  0.200968 0.0400001
-0.285532  0.212654 0.0332585
-0.347886    0.2276 0.0142344
-0.338558  0.227642 0.0233835
-0.349478  0.228536 0.0134377
 -0.408542   0.246287 0.00176379
 -0.411008   0.255679 0.00622145
 -0.42431  0.249927 0.0181195
 -0.413722    0.24981 0.00868909
 -0.40096  0.233105 0.0243411
-0.413276  0.240207 0.0134308
 -0.41942  0.240596 0.0170831
 -0.425675   0.223903 0.00853984
-0.423314  0.215373  0.018379
-0.417766  0.212948 0.0188394
-0.407362  0.211999 0.0176805
 -0.39618  0.230426 0.0107001
-0.402838  0.235023 0.0218405
 -0.370776   0.234447 0.00566106
 -0.399944   0.244456 0.00898681
-0.380253  0.206048 0.0174827
-0.378424  0.221651 0.0167476
-0.29305  0.18155 0.039648
-0.301544  0.187072 0.0277766
-0.312788  0.198609 0.0338673
-0.329768  0.232596 0.0168197
-0.332459  0.243961 0.0187555
 -0.357211   0.241618 0.00793138
 -0.391165   0.243818 0.00786122
-0.350915  0.230706 0.0121746
 -0.373391   0.246413 0.00314974
  -0.35552   0.250155 0.00990819
-0.348884  0.247135 0.0125762
-0.296406  0.233643 0.0231549
-0.320703  0.232408 0.0184762
-0.366136  0.260305 0.0071238
-0.340151  0.200017 0.0148251
-0.357921  0.212177  0.011068
  -0.36014   0.256225 0.00728022
 -0.32709  0.205115 0.0235145
-0.283918   0.17784  0.021253
-0.281476  0.175069 0.0248371
-0.278741  0.174803 0.0274714
-0.288282  0.174717 0.0258881
-0.292174  0.178438 0.0260482
-0.326612  0.192301 0.0192252
-0.298384  0.179748 0.0252577
-0.339529  0.196882 0.0142937
  -0.381844    0.243615 0.000255517
-0.390027  0.212232 0.0146207
-0.361554  0.211595 0.0179851
-0.371984  0.220548 0.0103189
-0.425956  0.217874 0.0119515
-0.428996  0.250235  0.013479
 -0.417126   0.262361 0.00589942
 -0.376321    0.25046 0.00125625
  -0.398051    0.271476 -0.00188322
-0.391052  0.274475 0.0052981
-0.376076   0.26627  0.004466
 -0.412621    0.27164 0.00163626
  -0.412686    0.250919 -0.00236958
  -0.397942    0.267576 -0.00337469
  -0.408451    0.262869 -0.00328443
 -0.364921   0.253414 0.00608928
 -0.354459    0.24521 0.00711145
  -0.389457    0.264066 -0.00292778
  -0.388446    0.270399 1.69268e-06
 -0.372043   0.261142 0.00477672
 -0.353943   0.249026 0.00648954
-0.314632  0.234723 0.0169556
  -0.33516   0.251488 0.00156603
-0.333391  0.245108 0.0047776
 -0.349258   0.248371 0.00443677
 -0.352743   0.239165 0.00982791
 -0.347075   0.243094 0.00820808
 -0.35156  0.241929 0.0089649
 -0.360359   0.239548 0.00755997
-0.378254  0.238992 0.0025931
  -0.383659    0.240313 0.000812597
 -0.373222   0.245941 0.00312455
  -0.386457    0.257656 -0.00308551
  -0.406301    0.259155 -0.00348951
  -0.407213    0.263702 -0.00359972
  -0.399719    0.261946 -0.00425772
  -0.392068    0.262947 -0.00373874
  -0.384135    0.251576 -0.00198949
  -0.395445    0.255252 -0.00422512
  -0.399226    0.246552 -0.00280236
  -0.401897    0.243481 -0.00540433
  -0.401529    0.244023 -0.00808961
   -0.390647     0.238467 -6.38923e-06
 -0.447832   0.127912 -0.0466767
 -0.460167   0.133181 -0.0493116
   -0.407223     0.235382 -0.000717542
 -0.400986   0.232378 -0.0094137
  -0.394344    0.233136 -0.00497934
 -0.440004    0.12797 -0.0424782
 -0.464836   0.132308 -0.0504776
-0.438867  0.121673 -0.043938
   -0.393749     0.238115 -0.000176576
   -0.39513    0.238517 -0.00412857
  -0.391347    0.236607 -0.00145794
 -0.368268   0.232758 0.00688762
 -0.353482   0.232157 0.00369565
-0.342267  0.211424 0.0146758
-0.329289   0.21444 0.0240514
-0.281871  0.202319 0.0384422
-0.312879  0.226558 0.0233022
 -0.359749    0.21078 0.00959288
 -0.365526   0.220371 0.00864841
  -0.414304    0.230433 0.000624905
  -0.412191     0.23084 7.44435e-05
  -0.39089   0.226257 0.00366554
  -0.43002    0.12281 -0.0381219
 -0.465522   0.111848 -0.0490505
 -0.430942   0.115917 -0.0410749
 -0.396235   0.116942 -0.0418806
 -0.424917   0.114179 -0.0447583
 -0.40552  0.101288 -0.031871
 -0.342312  0.0908292 -0.0138071
 -0.409754   0.108982 -0.0389254
-0.438935  0.120683 -0.052048
 -0.440463   0.107735 -0.0459235
-0.452564  0.101926 -0.046408
 -0.442865   0.118423 -0.0496021
 -0.462311   0.121097 -0.0538521
  -0.45688   0.126232 -0.0535962
 -0.452059   0.120524 -0.0510019
 -0.462871   0.103494 -0.0519199
-0.463394  0.107252  -0.04938
 -0.464745   0.101714 -0.0460801
 -0.459704   0.102161 -0.0564805
 -0.456546   0.103305 -0.0500892
 -0.455133   0.103553 -0.0474158
 -0.451738   0.092205 -0.0460826
-0.458778 0.0946939 -0.046712
 -0.464986  0.0994103 -0.0452845
 -0.458872  0.0993687 -0.0464848
-0.458913 0.0973768 -0.046088
 -0.459618   0.089344 -0.0473234
 -0.462896  0.0939894 -0.0466433
 -0.459736  0.0918917 -0.0472457
 -0.449363  0.0870832 -0.0461538
 -0.445096  0.0857281 -0.0446621
 -0.437748  0.0749518 -0.0517682
 -0.391934  0.0928601 -0.0218607
-0.421765 0.0801844  -0.03251
 -0.38411 0.0920243 -0.019494
 -0.379169  0.0888741 -0.0154441
 -0.335882  0.0675019 0.00784487
  -0.308788   0.0860922 -0.00656164
  -0.46844  0.0687396 -0.0391861
 -0.492731  0.0929272 -0.0322214
 -0.487002  0.0952716 -0.0348638
 -0.474133  0.0845075 -0.0460702
 -0.485955  0.0893074 -0.0357942
 -0.485842     0.0933 -0.0362306
 -0.457064   0.093491 -0.0354255
 -0.477347  0.0938955 -0.0341378
-0.456334 0.0920035 -0.032288
 -0.413815  0.0749243 -0.0265699
 -0.415375  0.0773348 -0.0280389
  -0.43801  0.0691917 -0.0128127
 -0.441448  0.0689632 -0.0147866
 -0.411063    0.06453 -0.0124313
  -0.380175    0.071012 -0.00682879
  -0.383756   0.0798692 -0.00454839
 -0.410118  0.0813703 -0.0259604
 -0.411249   0.084781 -0.0272348
  -0.40984  0.0842912 -0.0263342
 -0.36551 0.0874307 0.0115196
  -0.39764  0.0841272 -0.0198913
-0.373142 0.0950713  0.012824
 -0.392791  0.0843471 -0.0172745
 -0.416292  0.0971594 -0.0194755
-0.462661  0.105701 -0.045857
 -0.475142  0.0967012 -0.0405289
 -0.450995  0.0962639 -0.0448361
 -0.399274  0.0912463 -0.0233809
 -0.408771  0.0997057 -0.0318048
 -0.409306   0.093266 -0.0283436
  -0.36228  0.0983315 -0.0192651
 -0.346245  0.0948614 -0.0112145
 -0.350343  0.0931473 -0.0115585
  -0.354231   0.0876071 -0.00831583
  -0.322991   0.0816041 -0.00237028
   -0.33141   0.0881741 -0.00819988
  -0.320537   0.0857934 -0.00595682
  -0.337974   0.0821646 -0.00311263
  -0.339592   0.0779975 0.000121526
  -0.369931   0.0839232 0.000595146
 -0.335392  0.0756537 0.00207883
 -0.325739  0.0734564 0.00415933
 -0.337686  0.0653838 0.00983678
 -0.359442  0.0807187 0.00625184
-0.369425 0.0994593  0.019763
-0.292073 0.0611461  0.026698
-0.320332 0.0591327 0.0152793
-0.329336 0.0643799 0.0171876
 -0.30796 0.0575057 0.0188057
-0.305645 0.0541654 0.0220493
 -0.33134 0.0659198 0.0183052
-0.352983 0.0755308 0.0146338
 -0.358368  0.0792734 0.00731066
-0.305607 0.0601218 0.0173632
 -0.299556  0.0796943 0.00252175
-0.329259 0.0634594 0.0110175
-0.322589 0.0621917 0.0129361
-0.340919 0.0711128  0.012893
 -0.292998  0.0805363 0.00216523
  -0.295789   0.0842065 -0.00223505
-0.169597  0.135162 0.0520863
-0.187893 0.0487881 0.0395169
-0.192982 0.0508154 0.0385065
-0.140934 0.0526079 0.0538522
-0.152163 0.0519316 0.0475821
-0.196083   0.14891 0.0547175
-0.137521  0.171594 0.0641009
-0.128704   0.17101 0.0593637
-0.135776  0.183353 0.0585804
 -0.13127   0.18488 0.0573553
-0.136411  0.175675 0.0622721
-0.155003  0.182898 0.0568938
-0.120982  0.153057 0.0688143
-0.132686  0.158025 0.0744941
-0.144461  0.174751 0.0623416
-0.102737  0.155873 0.0372801
-0.123285  0.142643 0.0789832
-0.0257759   0.121624  0.0762234
-0.000495724     0.164782    0.0609707
 -0.01232  0.154403 0.0582656
-0.0332215   0.132639  0.0644864
-0.0980911   0.146558   0.075613
-0.0253144   0.138109  0.0636296
-0.0198283   0.151051  0.0593955
-0.00181745    0.166964   0.0581901
-0.0407596   0.130389  0.0651379
-0.0700693   0.132581  0.0781014
-0.0920605   0.133895  0.0816936
-0.108672  0.143457 0.0860119
-0.101241  0.137145 0.0829964
-0.032867  0.127885  0.068056
-0.0545643   0.073181  0.0722398
-0.0434659  0.0930238  0.0851341
-0.00497273   0.0704434    0.104721
-0.0296435  0.0649082  0.0900491
-0.0705024   0.072585  0.0642618
-0.0562978  0.0578517  0.0665478
-0.010544 0.0927042 0.0990294
0.00230297    0.10528   0.100683
-0.00268769    0.122198   0.0878158
-0.0269879   0.116699  0.0804499
-0.0545941  0.0570668  0.0671503
-0.148611  0.136811  0.053729
-0.14662 0.138011  0.06259
-0.167934 0.0601008 0.0348373
-0.180065 0.0434522 0.0447664
-0.207683 0.0673469 0.0304066
-0.230992 0.0637663 0.0351545
-0.275767 0.0654286 0.0178285
-0.243245 0.0574416  0.031865
-0.256975 0.0653049 0.0232928
-0.214575 0.0524412 0.0379978
-0.281385 0.0804316 0.0020587
  -0.286088   0.0864159 -0.00354479
-0.292036 0.0614978 0.0186449
  -0.267852   0.0574434 -0.00687335
-0.209121 0.0477921 0.0415552
-0.248458 0.0560844 0.0337363
 -0.276894  0.0749359 0.00879909
-0.240949 0.0728413   0.01619
 -0.272049  0.0736478 0.00961526
-0.232314   0.16819  0.047516
-0.212801  0.163292 0.0592232
-0.217449  0.193273 0.0511888
-0.212153  0.195673 0.0492853
-0.226262  0.182527 0.0561853
-0.272529  0.192775   0.04051
-0.279466  0.180055 0.0297367
-0.272504  0.177483 0.0304657
-0.243845  0.176307 0.0461002
-0.172483  0.151733 0.0588363
-0.208906  0.195451 0.0499577
-0.166145  0.190781 0.0487341
-0.207925  0.146727 0.0477818
 -0.15802   0.15317 0.0724638
-0.148842  0.172822 0.0642533
-0.156001  0.174616 0.0632296
-0.153865  0.154933 0.0748292
-0.146964  0.167224 0.0544177
-0.128654  0.152091 0.0529301
-0.142074  0.144129 0.0700076
-0.144627  0.168848 0.0667938
-0.110826  0.263299 0.0543855
-0.0825564   0.278649  0.0687295
-0.0928441    0.26913   0.072581
 -0.13435  0.289209 0.0637139
-0.124794  0.262941 0.0367758
-0.190924  0.208628  0.043148
-0.263724  0.221034 0.0277081
-0.270102   0.22442 0.0258268
-0.275488  0.222783 0.0277253
-0.204827  0.213732 0.0346403
-0.205643  0.207357 0.0407301
-0.263733  0.230545 0.0221871
-0.291018  0.232951 0.0245882
 -0.26566   0.22443 0.0254646
-0.269142  0.221962 0.0273029
-0.281615  0.210807 0.0338864
-0.294094  0.227763 0.0266959
  -0.2678  0.212616 0.0329257
-0.276987  0.205799 0.0357215
-0.262018  0.202808 0.0392664
 -0.24006  0.211327 0.0338277
-0.233323  0.218344 0.0271584
-0.232017  0.210478 0.0348766
-0.216731  0.209531 0.0368468
-0.235476  0.221376 0.0233303
-0.236587  0.219614 0.0253718
-0.260349  0.218487 0.0287938
-0.166001  0.314635 0.0531024
 -0.18038  0.323102 0.0493968
