0.104972 0.146087  0.15001
0.100965  0.14423 0.130883
0.098996 0.133426 0.103693
0.0878233   0.13197    0.1045
0.0770033  0.136913  0.136084
0.0761254  0.133983  0.124799
0.0835519  0.129507  0.104998
0.0954591  0.135585  0.105258
0.0864524  0.135897  0.120781
0.0775689  0.134269  0.118879
0.0926946  0.137297   0.10332
0.0843045  0.135764  0.111384
0.0760194   0.12803  0.105501
0.093958 0.149523 0.120049
0.0872547  0.134594    0.1045
0.0706554  0.129379  0.103846
0.0846413  0.140494  0.102055
0.0459895  0.137626  0.142869
0.0430153  0.133551  0.131296
0.0362065   0.12922  0.135065
0.0446309  0.136688   0.14342
0.0570149  0.140103  0.148732
0.049045 0.138697 0.148986
0.054385 0.138725 0.146988
0.0649746  0.132152  0.122546
0.0582177  0.136145  0.143671
0.0479163  0.113415  0.144146
0.0416891 0.0997504   0.11661
0.0355392   0.10687  0.118425
0.0641586  0.117492  0.104297
0.0495432  0.124662   0.10312
0.0596884   0.13557  0.126434
0.0387013  0.117873   0.12688
 0.033525 0.0995029  0.105851
0.0379313  0.104888  0.104336
0.0370277   0.11049  0.115782
0.0294116 0.0926873  0.108445
0.0317599 0.0871583  0.115914
 0.023075 0.0947902  0.132036
0.0366748 0.0964612  0.107437
0.034614 0.125333 0.126053
0.039261 0.129495 0.130326
0.0368063  0.126287  0.122001
0.0372637  0.122527  0.115906
0.0333102   0.12062  0.121792
0.0309542  0.112384  0.112388
0.0344383  0.118673  0.102683
0.0244854  0.133663  0.117605
0.0243747  0.138515  0.125312
0.0283115  0.130314  0.113292
0.0219454  0.135636  0.124294
0.0306422  0.138414  0.118983
0.0300264  0.144467  0.126409
0.0369463  0.146035  0.123968
0.0478315  0.165759  0.129896
0.0406843  0.163345  0.137878
0.0456649   0.15764  0.130814
0.0418975  0.139618  0.117894
0.0557497  0.170145  0.123597
0.0609637  0.173507  0.119909
0.0604887  0.180119  0.124764
0.071457 0.181062 0.116392
0.0668507  0.182197  0.120595
0.0608691  0.180772  0.129982
0.0547191  0.161267  0.121007
0.0525881  0.156528    0.1198
0.0501697   0.17269  0.132582
0.0590314  0.159342  0.114025
0.0552714  0.145762  0.112374
0.0618248  0.161699  0.112318
0.0675823  0.161259  0.104306
0.0711765  0.163912  0.100557
0.0540886  0.137705  0.126511
0.0564113  0.142432  0.141924
0.0582972   0.14076   0.14248
0.0571499  0.137806  0.135967
0.0624598  0.140552  0.144103
0.0647832  0.131351  0.115699
0.0661271  0.144091  0.100731
0.0711587  0.145855  0.100588
0.0586687  0.141502  0.125387
0.0618805  0.138226  0.101995
0.0551724  0.132653  0.114372
0.0591649  0.135505  0.125889
0.049538 0.134855 0.120036
0.0449089  0.131768  0.111015
0.0451857   0.13649  0.120455
0.0403256  0.121375  0.103127
0.0441135  0.133847  0.128095
0.0365107  0.129588  0.120663
0.0275566 0.0924873  0.132831
0.0250767 0.0960525  0.147942
0.0271542 0.0965468  0.144737
0.0313301 0.0899701  0.134973
0.0369734 0.0926268  0.127246
0.0324321  0.101217  0.143196
0.065517 0.119221 0.124008
0.0634408  0.111069  0.118679
0.0567821  0.108368  0.121476
0.0505955  0.114426  0.155268
0.0512801    0.0916   0.11145
0.0426912  0.080321  0.116382
0.0490071  0.106218  0.159354
0.0537825  0.112774  0.163438
0.0548383 0.0698319  0.125876
0.0418722 0.0874423  0.155908
 0.033511 0.0996623  0.178701
0.0333849 0.0987847  0.177404
 0.040649 0.0926013  0.165615
0.0470653 0.0963298  0.153063
0.0498554 0.0901077  0.140863
0.0374941 0.0826766  0.126128
0.0486884 0.0867858  0.145219
0.0326811 0.0938569  0.159618
0.0225806  0.103933  0.176299
0.0310658  0.090437  0.154826
0.0195318  0.101322   0.17436
 0.017246 0.0995558  0.172434
0.0257475 0.0982896  0.176284
0.0311404 0.0863307  0.180195
0.0265054 0.0947848  0.176783
0.0383417 0.0790928  0.129466
0.0259809 0.0929539  0.166749
0.0157407 0.0963374  0.167845
 0.032911 0.0876421  0.142572
0.0239895 0.0910913  0.173044
0.0358445 0.0730361  0.129112
 0.027856 0.0706481  0.135829
0.0306588 0.0437985  0.125884
0.0412193 0.0490025  0.125827
0.0350432 0.0377687  0.128716
0.0280835 0.0834485  0.178735
0.0380652 0.0662231  0.120267
0.0524217 0.0665926  0.121929
0.0522196 0.0488233  0.126963
0.0562142 0.0533389  0.125771
0.0476367 0.0462725  0.127444
0.0459623 0.0630684  0.122486
0.0497874 0.0752241  0.136321
0.0418691 0.0754594  0.118273
0.0527167 0.0776412  0.152561
0.0431464 0.0877628  0.164026
0.0464235 0.0812613  0.138866
0.0386079 0.0881726  0.158296
0.0427016 0.0835741  0.143038
0.0340479 0.0886955  0.180945
0.0377161  0.091257  0.183022
0.0400811 0.0922629  0.184106
0.0372046 0.0907702  0.182755
0.0551988 0.0729918  0.133586
0.0630525 0.0648583  0.122204
0.0722646 0.0736723  0.135416
0.0522113 0.0813131  0.131177
0.0720727 0.0800898  0.115643
0.0630158  0.083678  0.114952
0.0597684 0.0768863  0.118129
0.0704232 0.0782591  0.116629
  0.07047 0.0811656  0.132545
0.0683844  0.063822   0.12225
0.0534963 0.0751471  0.144226
0.0646134 0.0709924   0.14204
0.0586564 0.0544942  0.125411
0.0635332 0.0529037  0.125743
0.0661322 0.0566667  0.124616
0.0698508 0.0579455  0.132493
0.0752388 0.0631913  0.132586
0.0868882   0.05675  0.121759
 0.115296 0.0529186  0.118615
 0.102999 0.0520472  0.120707
0.0937916 0.0465359  0.124014
0.110234 0.044307  0.12278
 0.119532 0.0491924  0.119544
 0.106821 0.0536823  0.119441
0.0926877 0.0583701  0.119938
   0.1198 0.0568622  0.116101
0.0846682 0.0650435  0.131692
 0.115034 0.0639074  0.113511
 0.122423 0.0643056  0.112512
 0.104791 0.0784415  0.110706
 0.112895 0.0856001  0.109291
 0.105273 0.0944368  0.108372
0.0855352  0.084489  0.111412
0.0790495   0.08269  0.113346
0.0972246 0.0917661  0.108916
 0.114953 0.0896347  0.108599
 0.121644 0.0816708  0.108988
 0.119625 0.0757021  0.110127
 0.113812 0.0739917  0.110916
0.0978936 0.0673331  0.115585
0.0756544  0.075877  0.116797
0.0713475 0.0717726  0.122101
 0.120295 0.0747893  0.110192
0.0826329  0.064743  0.119674
0.110813 0.103495 0.112958
 0.11436 0.102625  0.10689
 0.127026 0.0976125  0.105836
0.0999409  0.105574  0.119614
0.104444 0.108478 0.107415
 0.110754 0.0972413  0.107822
0.0609136 0.0995762  0.107922
0.071485 0.106227 0.165823
0.0567455  0.112471   0.15826
0.0611635  0.110424   0.16089
0.064766 0.107641 0.106352
0.0789664  0.118535  0.110478
0.0709674   0.10551  0.107234
0.0845037  0.108867  0.107652
0.0912292  0.102373  0.108063
0.0982443  0.111073  0.107467
0.0826723  0.101217  0.108159
0.0799796  0.110779  0.160747
0.121507 0.110167 0.115825
0.118442 0.113939 0.104759
0.111054 0.109916 0.108013
0.100502 0.113039 0.112543
0.0952055  0.113595  0.107294
0.0761646  0.124043  0.108642
0.101764 0.123744 0.105445
0.0866113  0.126945  0.105496
0.0739042  0.126866  0.105041
0.0693392  0.125072  0.117689
0.0754659  0.118947  0.106295
0.0802906  0.119969  0.106477
0.0714349  0.119377  0.125246
0.0698361   0.11407  0.106155
0.0912775  0.113866  0.126278
0.108463 0.109169 0.108703
 0.12371 0.121515 0.108378
0.127642 0.129248 0.121318
0.121104 0.131419 0.119829
0.110868 0.143041 0.117954
0.115074 0.136593 0.117298
0.125707 0.134068 0.125808
0.123557 0.128473 0.132964
 0.12643  0.11539 0.103053
 0.12505 0.111693 0.133227
0.128796 0.105362 0.120823
 0.130225 0.0970079  0.105238
0.126338 0.093633 0.106662
 0.128534 0.0896847  0.106805
0.133482 0.103803 0.125425
 0.144925 0.0990062  0.101451
 0.147165 0.0947218  0.101964
0.144744 0.115943 0.118455
 0.13735 0.110594 0.100811
0.130662 0.103086 0.109743
0.147066 0.116802 0.114186
 0.136842  0.116499 0.0996469
0.124004 0.124742 0.101506
0.132204 0.116819 0.109608
0.128546 0.116894 0.102264
0.130282 0.113442 0.102519
0.147042 0.100654 0.100531
 0.166862 0.0951795 0.0971317
0.155762 0.103893  0.11986
0.152899 0.105337 0.130541
 0.152402 0.0940153  0.101111
 0.160684 0.0867202  0.101143
 0.164807 0.0888299 0.0996295
  0.18051 0.0862671 0.0963726
 0.195806 0.0979876  0.138626
0.201601 0.093183 0.134194
 0.173069 0.0912332 0.0969795
 0.192337 0.0901795  0.101861
   0.201  0.10225 0.101941
0.226083 0.109851 0.147542
0.215919 0.106136 0.135228
 0.235087 0.0876026  0.118327
 0.235912 0.0730642  0.078781
 0.216003  0.072513 0.0883049
 0.213976 0.0937625  0.126887
 0.193135 0.0921652 0.0907228
 0.192599 0.0898984 0.0953283
 0.181068 0.0983332 0.0918233
 0.173294 0.0983968  0.094122
0.174703 0.118015 0.139209
0.169786 0.123727 0.125889
0.151095  0.12211  0.11595
0.155126 0.134722 0.148415
 0.152279  0.114014 0.0954777
 0.203546 0.0971062  0.084547
0.205741 0.103211 0.107242
 0.203529 0.0933382 0.0851218
 0.234105 0.0943297  0.121229
 0.251445 0.0945023  0.131696
 0.235371 0.0893163  0.110227
 0.251503 0.0785226 0.0900884
 0.260161 0.0692649 0.0828676
 0.219954 0.0838679 0.0817357
 0.239288 0.0751308 0.0772874
 0.231981 0.0799214 0.0784969
 0.223864 0.0881424 0.0798085
 0.253893 0.0792709 0.0913161
0.269466 0.100742 0.128297
 0.246983 0.0958877  0.105528
0.257971 0.105627 0.116194
0.268701 0.102204 0.128191
 0.278153 0.0572364 0.0859098
0.274343 0.086253 0.113075
  0.27789 0.0931875  0.122276
 0.285903 0.0889015  0.125225
 0.230456 0.0899254 0.0826589
   0.2111  0.103911 0.0811839
0.216816 0.131109  0.12511
0.212382 0.124268 0.117767
 0.19896 0.114968 0.094521
0.221189   0.1328 0.123502
 0.198253  0.115287 0.0833689
 0.164183  0.126097 0.0902566
 0.189706  0.123792 0.0924869
 0.146558  0.132888 0.0936044
  0.15119  0.128302 0.0933144
0.138866 0.144222 0.100573
   0.1542  0.134277 0.0913426
0.132047 0.166134 0.116308
0.124324 0.161334 0.104904
0.121877 0.168365 0.111142
 0.114914  0.159165 0.0970712
 0.132159  0.146078 0.0951849
 0.113999  0.145367 0.0997608
 0.11461 0.135504 0.101921
0.105834 0.142299 0.108163
0.107224 0.153421 0.099193
 0.114476  0.156894 0.0973787
0.111857 0.145657 0.120524
0.124976 0.134911 0.099213
 0.130877  0.140143 0.0964572
 0.120436  0.151658 0.0972807
0.161212 0.134458 0.106991
 0.144468  0.122278 0.0955935
 0.136401  0.123915 0.0976357
0.128372 0.131906 0.114619
-0.333743 0.0564831   0.01397
 -0.34936 0.0552427 0.0157578
 -0.346579  0.0587209 0.00771178
  -0.35405  0.0590249 0.00907524
 -0.353145  0.0595984 0.00672597
-0.342007 0.0578576 0.0112859
-0.342381  0.070546 0.0134524
 -0.346538  0.0618369 0.00653977
 -0.344425  0.0683953 0.00673535
-0.336988 0.0652215 0.0103515
-0.339368 0.0699101 0.0203737
-0.332837 0.0630418 0.0114209
-0.332479 0.0614508 0.0114044
-0.335359 0.0603627 0.0104047
-0.335187 0.0613278  0.010349
-0.330672 0.0635792 0.0146076
 -0.32464 0.0617701 0.0179866
 -0.32938 0.0636809 0.0163685
-0.334231 0.0674782 0.0185113
-0.336416 0.0692861 0.0208399
-0.325921 0.0628309 0.0181496
 -0.32172 0.0652511 0.0255053
-0.318658 0.0653222 0.0271203
-0.322326 0.0630046 0.0216858
-0.324302 0.0623927 0.0191727
-0.327205 0.0631448  0.020079
-0.328042 0.0609295 0.0131276
 -0.32935 0.0504291 0.0251628
-0.336449 0.0494683 0.0289265
-0.330176 0.0542795 0.0191702
-0.330303 0.0554118 0.0186545
-0.325887 0.0606244 0.0150061
-0.324951 0.0555159 0.0170405
-0.327444 0.0529571 0.0224823
-0.325956 0.0507831 0.0289079
 -0.32196 0.0531159 0.0209498
-0.325262 0.0599414 0.0167322
-0.307591 0.0593262 0.0273142
-0.306476 0.0570279 0.0253546
-0.310696 0.0456553 0.0406622
-0.308873 0.0555675 0.0217713
-0.311197 0.0592774 0.0247765
-0.306095  0.052857  0.025406
-0.310579 0.0535061 0.0348165
-0.310227 0.0481041 0.0379421
-0.308669  0.043279 0.0486202
-0.300361 0.0569518  0.028565
 -0.29785 0.0580586  0.031789
-0.285792 0.0589149 0.0403854
-0.290739 0.0542042 0.0308557
-0.277922 0.0643905 0.0518505
  -0.2831 0.0632587  0.048113
  -0.3038 0.0609818 0.0314591
-0.310269 0.0624342 0.0292049
-0.305476 0.0597009 0.0290656
-0.302502 0.0600961 0.0313439
-0.310542 0.0549903 0.0198497
-0.313495 0.0566374  0.021189
-0.315132 0.0641222 0.0279506
-0.317998 0.0591674 0.0201027
-0.315588 0.0600288 0.0230067
-0.316468 0.0585714 0.0206539
-0.323058 0.0621262  0.030503
-0.320575 0.0600034 0.0191342
-0.319627 0.0591877 0.0185646
-0.317075 0.0583329 0.0197514
-0.314594 0.0572559 0.0233897
-0.312847 0.0516175 0.0275733
-0.309395 0.0534683 0.0239234
-0.312426 0.0492595 0.0331862
-0.315445  0.052641 0.0233957
-0.318533 0.0530918 0.0219496
-0.321556 0.0546371 0.0182542
-0.320391 0.0505866 0.0271645
-0.321735 0.0473923 0.0365107
-0.318308 0.0496294 0.0299611
-0.313851 0.0470488 0.0378038
-0.313783 0.0498845 0.0309783
 -0.31785 0.0461493 0.0378445
-0.308075  0.044711 0.0454575
 -0.30581 0.0436144 0.0491596
-0.304002 0.0451202  0.043091
-0.308891 0.0533748 0.0379363
-0.308058 0.0463778 0.0400479
-0.300937  0.051153 0.0290869
-0.297145 0.0499969  0.030375
-0.292444 0.0493966 0.0282554
-0.293702 0.0472124 0.0339329
-0.301288   0.04274 0.0455822
-0.291992 0.0448664 0.0483037
-0.287497 0.0496979 0.0292164
-0.282649 0.0402374  0.032843
 -0.27823 0.0485552 0.0327349
-0.273427  0.057171 0.0720618
-0.257559 0.0447978 0.0477601
-0.263556 0.0540322 0.0737048
 -0.26756 0.0430725 0.0487085
-0.280281 0.0382813 0.0661925
-0.269876 0.0416709 0.0362443
-0.267384 0.0454147 0.0400476
 -0.26977 0.0614498 0.0732281
-0.270686 0.0576523 0.0685861
-0.266559  0.049632  0.043695
-0.270213 0.0564949 0.0542288
-0.270995  0.059691 0.0678674
-0.268434 0.0604546 0.0686283
-0.257651 0.0527977 0.0584796
-0.260294 0.0598064 0.0733722
-0.265588 0.0597307  0.066274
-0.273966 0.0578185 0.0461582
-0.273727 0.0633905 0.0520472
-0.265106  0.052947 0.0438523
-0.273734 0.0637864  0.052504
 -0.27814 0.0662662 0.0541909
 -0.28256 0.0622263 0.0501832
-0.279765 0.0550454 0.0474845
-0.278392 0.0568532 0.0404974
-0.284556 0.0544402 0.0358493
-0.295677 0.0556161 0.0297953
-0.296144 0.0519952   0.02534
-0.291376 0.0524623 0.0278535
-0.291067 0.0556646 0.0338161
-0.289787 0.0605776 0.0434443
-0.294894 0.0599092 0.0401939
-0.319823 0.0663833 0.0273939
-0.310149 0.0660439 0.0341511
-0.311811 0.0663002 0.0339045
-0.307508 0.0615512 0.0304098
-0.317037 0.0659403 0.0288097
 -0.29686 0.0578464 0.0322082
-0.301485 0.0603639 0.0323837
-0.277608  0.176753 0.0441653
-0.291718 0.0646184 0.0412829
-0.303881 0.0645161 0.0356977
-0.305489 0.0645261 0.0345522
-0.283061 0.0621372 0.0401395
-0.273244  0.177003 0.0447076
-0.264617  0.180329 0.0454973
-0.263109  0.166513 0.0509056
-0.268508 0.0566827 0.0434949
-0.272382 0.0625386 0.0442739
-0.251147  0.171872 0.0514109
-0.258843   0.17276 0.0494895
-0.268074  0.182556 0.0431324
-0.284995 0.0548153 0.0344763
-0.270607 0.0646563 0.0519141
-0.251642  0.183539 0.0475733
-0.252429  0.177018 0.0520223
-0.253499  0.174715 0.0503633
-0.267429 0.0655041 0.0511723
-0.245199  0.182089  0.049716
-0.248166   0.18447 0.0517956
-0.247873  0.179196 0.0590756
-0.250515  0.187351 0.0491885
-0.248455  0.182913  0.048673
-0.283625 0.0577205 0.0405441
-0.301509 0.0620019 0.0341919
-0.299238 0.0628532 0.0373554
-0.272731 0.0549434 0.0419029
-0.260385   0.17762 0.0480295
-0.262405   0.18244 0.0454857
 -0.27855 0.0560566 0.0391164
-0.256182  0.185687 0.0501185
-0.256307  0.183639 0.0466349
-0.269566 0.0574435 0.0451781
-0.260944   0.18567 0.0595967
-0.264883  0.188569  0.056665
-0.270051  0.193039 0.0505725
-0.268912  0.190086 0.0553849
-0.262363  0.189978 0.0526987
-0.277997  0.192957 0.0526344
-0.275695  0.194747 0.0485907
-0.283806  0.194014 0.0522839
-0.276016   0.19021  0.057833
-0.272095  0.192178 0.0527263
-0.269806  0.186413  0.061828
-0.261671  0.185057 0.0609736
-0.263564  0.181323 0.0662494
-0.258754  0.180243 0.0639999
-0.260749  0.182887 0.0625118
-0.261643  0.180852 0.0656568
 -0.25592  0.178653 0.0641648
-0.252872   0.18537 0.0537835
-0.264411  0.182386 0.0648405
-0.263658  0.180298 0.0676915
 -0.26363  0.184342 0.0618644
-0.282221  0.196946 0.0446232
-0.273119   0.19613 0.0415558
-0.258542  0.188239 0.0454078
-0.262839  0.191279 0.0444042
-0.268183  0.193692  0.042832
-0.276638  0.186039  0.040434
 -0.26472  0.188305 0.0422952
-0.292898  0.183548 0.0399956
 -0.28267  0.193045 0.0370959
-0.280695   0.19794 0.0417837
-0.300738  0.196543 0.0448134
-0.295283  0.193143 0.0481932
-0.289095  0.195294 0.0468068
-0.293034  0.195182  0.044644
 -0.29184  0.197414 0.0369489
-0.296748  0.198761 0.0359722
-0.314362  0.195588 0.0422177
-0.319642  0.193635 0.0462918
-0.307235  0.195525 0.0441363
-0.312619  0.193135 0.0476323
-0.317967  0.191715 0.0496486
-0.322854  0.193913  0.046881
-0.323882  0.198905 0.0396662
 -0.31535  0.198649 0.0379403
-0.296567  0.182754  0.040171
 -0.29997   0.18822 0.0384437
-0.306377  0.199474 0.0352245
-0.309464  0.198034  0.034819
-0.306142  0.196293 0.0356132
-0.304293  0.188818 0.0383113
-0.309938  0.199895 0.0351606
-0.322112  0.203167 0.0344711
-0.325338  0.202393 0.0348149
-0.323574  0.206313 0.0309459
-0.312886  0.201334 0.0338811
-0.318145  0.201167 0.0317367
-0.320711  0.205725 0.0305522
-0.327532   0.20748 0.0280989
-0.309769  0.196974 0.0347193
-0.308967  0.187206 0.0378129
 -0.30716  0.181857 0.0397875
-0.308523  0.056674 0.0236294
-0.301591  0.183146 0.0402441
-0.307099  0.192276 0.0366935
-0.321626 0.0713916 0.0309139
-0.318764 0.0643779 0.0259553
-0.327984 0.0699868 0.0260265
-0.333763 0.0728458 0.0243062
-0.335053 0.0696957 0.0203797
-0.336751 0.0704044 0.0204242
-0.329493 0.0675298   0.02092
-0.325156 0.0696865 0.0291211
-0.325026 0.0674138 0.0245232
-0.322659 0.0676734 0.0267489
-0.331888 0.0720711 0.0248643
-0.311721 0.0620982 0.0280642
-0.320764 0.0741731 0.0339435
-0.318024 0.0692436 0.0312423
-0.316197 0.0681166   0.03113
-0.319132 0.0696421 0.0309358
-0.306673 0.0601521 0.0289812
-0.286228 0.0554877 0.0346119
-0.291392  0.057958 0.0341706
-0.280698 0.0584846 0.0386527
-0.284827 0.0546398 0.0342491
-0.297515 0.0565294 0.0301071
-0.257546  0.171624 0.0501791
-0.275989  0.056626 0.0397447
-0.277685 0.0673074  0.044122
-0.273913 0.0616168 0.0432708
-0.282383 0.0576874  0.038139
-0.271733 0.0546663 0.0401049
-0.302972 0.0581953 0.0288637
-0.295958 0.0535308 0.0268955
-0.282845 0.0522093 0.0322334
-0.272481 0.0521558 0.0380437
-0.252979  0.183027 0.0455761
-0.257053  0.185335 0.0446001
-0.286049 0.0540835 0.0296243
 -0.30032 0.0535832  0.024327
-0.248991  0.181373 0.0492149
-0.272689  0.169825 0.0465456
-0.275141  0.175258 0.0452472
 -0.28237  0.171545 0.0447451
-0.289478  0.175298 0.0433218
-0.288732  0.177849 0.0420941
-0.297811  0.180811 0.0408004
-0.298377  0.178837 0.0414688
-0.293381  0.179105 0.0419089
-0.283032  0.178891 0.0421756
-0.280676   0.17478 0.0449701
-0.268071  0.177315 0.0450555
-0.292554  0.170309 0.0459414
 -0.29485  0.176017 0.0432561
-0.295403  0.186939  0.039014
-0.294716    0.1771 0.0428233
-0.292068  0.171667 0.0456697
-0.264938  0.170503 0.0488138
-0.28147 0.173036 0.045714
-0.243004  0.177246 0.0594354
-0.238657  0.176848 0.0576002
-0.226922  0.173399 0.0561942
-0.231683  0.176175 0.0545159
 -0.22808  0.172729 0.0600822
-0.233084  0.173499 0.0547467
-0.229988  0.168946 0.0570208
-0.231992  0.165381 0.0579366
-0.236177  0.178964 0.0531081
-0.244617  0.181019 0.0501355
-0.239896  0.181431  0.052195
 -0.24243  0.175197 0.0518382
-0.237697  0.174088 0.0533834
-0.249521  0.172808 0.0512391
-0.254685  0.165743  0.051716
-0.251681  0.176192 0.0443308
-0.246496  0.171795 0.0516771
-0.246992  0.163551 0.0540476
-0.234672  0.170304 0.0552931
-0.235865  0.169889 0.0551576
-0.241073  0.170657 0.0534782
-0.266953 0.0534014 0.0420433
-0.230184  0.173537 0.0536088
-0.233293  0.170419 0.0483436
 -0.23763  0.177512 0.0512136
-0.264584 0.0559789 0.0436026
-0.260375 0.0535918  0.045038
-0.259276  0.049719 0.0432477
-0.256765 0.0520517 0.0453846
-0.262632 0.0564591 0.0448013
-0.265254 0.0583109 0.0456748
-0.267475 0.0642458 0.0469112
-0.259828 0.0639645 0.0510763
-0.264033 0.0612616 0.0478179
-0.257588 0.0632149 0.0515732
-0.241556  0.160567 0.0567342
-0.233502  0.163584 0.0581212
-0.228428  0.163387 0.0592313
-0.250678 0.0765898 0.0604713
-0.236125   0.16213  0.057665
-0.252794 0.0664194 0.0543875
-0.241144 0.0748023 0.0616971
-0.215661  0.155674 0.0658913
-0.247365 0.0740526  0.058636
-0.212047  0.158237 0.0659862
-0.211143  0.150718 0.0697272
-0.210876   0.14572 0.0728077
-0.211233  0.152962 0.0684997
-0.206826   0.15835 0.0668504
-0.209622  0.156704  0.067279
-0.239091 0.0532375 0.0488692
-0.247477 0.0608352 0.0527347
-0.254616 0.0516147 0.0456358
-0.250658 0.0497709 0.0460837
-0.24632  0.05043 0.047758
-0.208125  0.156135 0.0559213
-0.206525  0.158111 0.0583676
-0.210291  0.157966  0.055854
-0.211778  0.162546 0.0592528
 -0.20846  0.162167 0.0608489
-0.205134  0.162442  0.062809
 -0.21266  0.166718 0.0622412
-0.217506  0.168886  0.061043
-0.221661  0.164237 0.0526469
-0.215208  0.164974 0.0587556
-0.217725  0.160755 0.0529342
-0.221362  0.169653 0.0577238
 -0.22759  0.161288 0.0605788
-0.225875  0.171231 0.0550487
-0.234139   0.15586  0.060827
-0.228049  0.157803 0.0612316
-0.223369  0.157575 0.0630927
-0.217416  0.157633 0.0649403
-0.225243   0.16212 0.0607625
-0.230988  0.159498 0.0600339
  -0.2236  0.163203 0.0610265
-0.226354  0.166572 0.0630295
-0.217859  0.169836 0.0605241
-0.219596  0.161336 0.0632872
-0.212877  0.155124 0.0668969
-0.216922  0.158252 0.0647026
 -0.21852  0.163552 0.0636257
-0.236004  0.167976 0.0750174
-0.234213   0.16624 0.0761316
-0.234742  0.165431 0.0778666
-0.242354  0.169638 0.0727082
-0.245818  0.167885 0.0769708
-0.238075  0.169365 0.0717394
-0.241947   0.17047 0.0733823
-0.244971  0.174191 0.0711644
-0.243897  0.170923 0.0711914
-0.246244  0.171671 0.0718521
-0.249322  0.173135  0.069524
-0.252295  0.175858 0.0670131
-0.250968  0.172629  0.071626
-0.256486  0.179608 0.0629877
-0.254616  0.171698 0.0767884
-0.249839   0.16951 0.0758592
-0.248771  0.171915 0.0717123
-0.246489  0.176158 0.0623933
-0.222024  0.171272 0.0599972
-0.230112  0.168328 0.0700154
-0.218057  0.169072 0.0731056
-0.220203  0.170236 0.0830127
-0.217036  0.169553 0.0878992
-0.207827  0.171065 0.0669064
-0.215471  0.162988 0.0788551
-0.205103  0.160089 0.0818607
-0.205572  0.163237 0.0835657
-0.208538  0.153654  0.100612
-0.208737  0.156687 0.0876809
-0.216742  0.153487 0.0936718
-0.202406  0.165826 0.0674859
-0.200937  0.157975 0.0846429
-0.218819  0.157398 0.0877622
 -0.21991  0.168806 0.0667379
-0.215803  0.162939 0.0789786
-0.219357  0.166676 0.0687899
-0.213283  0.167045 0.0687777
-0.208256   0.16298  0.075653
-0.237278  0.169445 0.0709064
-0.232238   0.16652 0.0751534
-0.227511  0.170363 0.0650977
 -0.23513   0.17326 0.0617261
-0.239732  0.170385 0.0696798
-0.222633  0.171389 0.0600409
-0.218812  0.169871  0.061741
-0.214713  0.163272 0.0633722
-0.211882  0.160019 0.0677808
-0.210728   0.16332 0.0673995
-0.213598  0.168806 0.0652079
-0.209874  0.155645 0.0685858
-0.210801  0.148349 0.0710613
-0.211811  0.151284 0.0693947
-0.207941  0.150459 0.0711567
-0.220366 0.0548781 0.0852101
-0.213025 0.0533849 0.0869859
 -0.22891 0.0604087 0.0848535
-0.240863 0.0642011 0.0843029
-0.242673 0.0645545 0.0839373
 -0.24307 0.0613225 0.0796008
-0.235286 0.0638258 0.0863909
-0.241291 0.0649862 0.0848171
-0.252396 0.0661522 0.0850426
-0.248052 0.0663607 0.0845145
-0.258899 0.0609586 0.0815313
-0.255446 0.0631046 0.0824788
-0.255519   0.06129 0.0804966
-0.254711 0.0593143 0.0780434
-0.257642 0.0579382  0.077253
-0.251715 0.0617154 0.0801292
-0.247128 0.0642411   0.08209
-0.251961 0.0643367 0.0828397
-0.228421  0.061965 0.0936192
-0.237577 0.0620951 0.0832885
-0.239304 0.0636813 0.0841317
-0.225346 0.0598691 0.0914949
-0.224385 0.0614342 0.0940252
-0.218645 0.0591123 0.0926516
-0.214015 0.0566428 0.0911444
-0.217794 0.0557336 0.0885779
-0.223865 0.0585177 0.0899914
-0.223722 0.0604079 0.0935728
-0.218778 0.0603996 0.0940153
-0.217912 0.0599978 0.0934949
-0.212576 0.0544132 0.0890053
 -0.22161 0.0588114 0.0917202
-0.217773 0.0558598 0.0887704
-0.212489 0.0525558 0.0937961
-0.214706 0.0550122 0.0889033
-0.219215 0.0531031  0.083228
 -0.19659 0.0287444 0.0638725
-0.222274   0.05697 0.0877311
-0.221142  0.041506 0.0656261
-0.224856 0.0535526  0.076305
-0.249378 0.0552258 0.0722094
-0.250017 0.0567908 0.0743909
-0.252748 0.0563549 0.0735163
-0.251271 0.0554196 0.0722398
-0.238117 0.0411476 0.0470567
-0.249863 0.0342625 0.0428519
-0.253064 0.0438325 0.0424782
-0.255893 0.0550144 0.0700391
-0.248116 0.0492005 0.0556115
-0.243752 0.0402254 0.0450026
-0.229765 0.0348833 0.0487998
-0.229657 0.0413483 0.0496818
-0.244826 0.0530127 0.0684347
-0.245994 0.0542216 0.0696539
-0.242684 0.0495576 0.0594551
-0.232888 0.0494708 0.0618266
-0.237145 0.0544077 0.0693612
-0.221359 0.0409048 0.0641763
-0.239933 0.0593988 0.0773897
-0.235268 0.0574693  0.077088
-0.239887 0.0449386  0.048516
-0.235189 0.0587378 0.0713255
-0.207669 0.0400006 0.0653899
-0.223088 0.0533164 0.0585631
-0.224068  0.063442 0.0613597
 -0.23399 0.0588347 0.0558576
 -0.23268 0.0440423 0.0513443
-0.236902  0.044375 0.0492106
-0.248494 0.0666053 0.0845962
-0.243824 0.0496493 0.0594057
-0.263514 0.0546178 0.0541077
-0.258961 0.0505416 0.0439934
-0.261294 0.0614884 0.0661781
-0.255818 0.0656536 0.0846344
-0.248453 0.0670836 0.0853436
-0.251735 0.0650064 0.0835587
-0.254385 0.0557238 0.0691349
-0.254378 0.0700704 0.0585067
-0.245269 0.0681341 0.0564113
-0.249915 0.0720706 0.0578172
-0.257277 0.0675641 0.0535859
-0.246762 0.0794028 0.0622469
-0.249675 0.0779373 0.0611411
 -0.24647 0.0818776 0.0633756
-0.238999 0.0789721  0.064249
-0.242635 0.0800861 0.0630678
-0.239446 0.0777735 0.0634518
-0.234821 0.0776545 0.0650747
-0.237097 0.0716145 0.0612134
-0.232032 0.0455935 0.0519549
-0.228446  0.054111 0.0476187
-0.227901 0.0787113 0.0660987
-0.225234 0.0742478 0.0651087
 -0.22947 0.0445803 0.0532825
-0.227294 0.0814913 0.0673935
-0.220858 0.0779598 0.0688201
-0.220101 0.0774636 0.0687724
-0.226106  0.080348 0.0670377
-0.223288 0.0791197 0.0681792
-0.136977 0.0569266 0.0515141
-0.138924 0.0550039 0.0519367
-0.143945  0.051849 0.0518255
-0.148006 0.0513174 0.0499525
-0.144346 0.0520988 0.0513328
-0.133136 0.0571648 0.0547469
-0.134046  0.057353 0.0530095
-0.131923 0.0531575 0.0592322
-0.135436 0.0554507 0.0542722
 -0.13885 0.0518628   0.05566
-0.146403 0.0364285 0.0672831
-0.137325 0.0483749  0.061511
-0.138696 0.0332046 0.0688001
 -0.13485 0.0511002 0.0602715
 -0.12784  0.052068 0.0639929
-0.141187 0.0362954 0.0710691
-0.132919 0.0421099 0.0716143
-0.126392 0.0481474 0.0699739
-0.126881 0.0426834 0.0710162
-0.136096  0.031609 0.0801377
 -0.11224 0.0391496  0.072492
-0.118909 0.0542002  0.066679
-0.118445 0.0522803 0.0700726
-0.128336 0.0548052 0.0609148
-0.129929  0.047418 0.0682101
-0.136597 0.0403815  0.070393
-0.188431 0.0383873 0.0726073
-0.191943 0.0386468 0.0711161
 -0.20203 0.0374309 0.0663332
-0.197444 0.0354078 0.0686381
-0.196144 0.0335351  0.068046
-0.213598 0.0525034 0.0638675
-0.217239 0.0571566 0.0630257
-0.211339  0.063987 0.0704772
-0.205605 0.0450188 0.0684742
-0.202922 0.0396589 0.0680961
-0.184042 0.0300257 0.0771112
-0.151412 0.0254986 0.0754616
-0.158963 0.0235376 0.0729881
-0.101763  0.124469 0.0753413
-0.181383 0.0258168 0.0711418
-0.171095 0.0239498 0.0733623
-0.177311 0.0395227 0.0726901
-0.185936 0.0266101 0.0723906
-0.191715 0.0316544 0.0711761
-0.190129 0.0274042 0.0652994
-0.184955 0.0265354 0.0655945
-0.152891 0.0359023 0.0617666
-0.160119 0.0316438 0.0620369
-0.102493  0.113083 0.0654398
-0.170513  0.029254 0.0599074
-0.161643  0.047706 0.0471725
-0.151165 0.0463485 0.0531936
-0.178453 0.0299135 0.0567684
-0.185293 0.0281622 0.0574255
-0.190592 0.0326255 0.0522328
-0.206143 0.0397583 0.0465359
-0.208085 0.0361767 0.0600941
-0.200182 0.0351964 0.0657812
-0.192983 0.0286345  0.057717
-0.204604 0.0311132 0.0569799
-0.198113 0.0299297 0.0552787
-0.214335 0.0382599 0.0487043
-0.216025 0.0423345 0.0582404
-0.207269 0.0454422 0.0621991
-0.213983 0.0524794 0.0589081
-0.212563 0.0522858 0.0595863
-0.220925 0.0428088 0.0548111
-0.219006 0.0694445 0.0523408
-0.182983   0.15155 0.0613381
 -0.17513  0.140811 0.0541975
-0.171101  0.138566 0.0541057
-0.169719  0.143416 0.0584001
-0.172672  0.147738 0.0603546
-0.178054   0.14996 0.0608554
-0.223415 0.0402921 0.0526542
-0.221961 0.0734378 0.0663488
-0.163747  0.153007 0.0699619
-0.164642  0.156226 0.0729805
-0.216977 0.0740304 0.0698494
-0.181472  0.156871 0.0671789
-0.175713  0.157148 0.0690422
-0.170324  0.155219 0.0688045
-0.168779  0.150255 0.0647248
-0.176352  0.154412 0.0658542
-0.182355  0.154325 0.0640021
-0.188443  0.157048 0.0645726
-0.203143  0.157798 0.0680506
-0.195254  0.163017 0.0685753
-0.201568  0.152495 0.0659145
-0.202225  0.163031 0.0653671
-0.204447  0.156064 0.0577094
 -0.20618  0.151043 0.0558122
-0.200876  0.153603 0.0575376
-0.202602  0.154313 0.0574553
-0.198702  0.154266 0.0590775
-0.200534  0.158134 0.0614073
-0.187198  0.153458 0.0622484
 -0.18067  0.142663 0.0542737
 -0.19368  0.154404 0.0607802
-0.193289  0.151098 0.0625233
-0.195903  0.157248 0.0625044
-0.159022  0.139797 0.0593024
 -0.15806  0.128644 0.0515128
-0.154958  0.124867 0.0502393
 -0.15433  0.129597 0.0533966
-0.149116  0.130859 0.0565196
-0.144175  0.121225 0.0523689
-0.140906   0.11865 0.0522584
-0.145125  0.117652 0.0509715
-0.148023  0.122039 0.0514804
-0.150354   0.12545  0.052526
-0.147012  0.123293 0.0526068
-0.153574    0.1399 0.0611724
-0.165119  0.146351 0.0625658
-0.161822  0.146251 0.0640597
-0.157271  0.145551  0.064874
-0.152056  0.153085 0.0745075
-0.133677  0.143508 0.0740296
 -0.14197  0.145896 0.0715654
-0.150341  0.141485 0.0641343
-0.143988  0.139003 0.0643905
-0.133673  0.137207 0.0679158
-0.126992  0.108073  0.052069
-0.129137  0.111033 0.0526446
-0.136192  0.120038 0.0549328
-0.128574  0.139165 0.0726261
-0.128094  0.117601  0.056537
-0.112303  0.117549 0.0637765
-0.114757  0.126193 0.0695269
-0.121575  0.115554 0.0580147
-0.119012    0.1122 0.0568236
-0.115873  0.108531 0.0556192
-0.120272  0.107339 0.0524338
-0.112633  0.103132 0.0510961
-0.117578  0.103866 0.0507256
-0.137211  0.116752 0.0527618
-0.123957   0.10802 0.0523717
-0.124581  0.106457 0.0511823
-0.127671  0.106191 0.0500659
-0.130527  0.109946 0.0508921
  -0.1211  0.104368 0.0507384
-0.117119  0.101783 0.0491529
 -0.10976   0.10251 0.0523463
-0.101335  0.154723 0.0673498
-0.0931196   0.146979  0.0734794
-0.0876997   0.144014  0.0672865
-0.0688278   0.134392  0.0725577
-0.0773779   0.139372  0.0742498
-0.108533  0.153187 0.0777221
-0.0972634   0.149258  0.0741672
-0.0802883   0.142951  0.0703147
-0.0710935   0.140037  0.0714182
-0.0963992   0.152508  0.0792034
-0.0907926   0.137284  0.0936459
-0.0853917    0.13141  0.0899475
-0.0957132   0.143311  0.0796626
-0.106302  0.148213   0.08396
-0.0833669   0.155053  0.0903388
-0.0910852   0.150487  0.0900537
-0.0977064   0.149753  0.0872901
-0.100587  0.155019 0.0838236
-0.0968656   0.165862  0.0618203
-0.111474  0.156546 0.0744735
-0.0993211   0.159356  0.0728221
-0.0229789   0.150886  0.0582738
-0.0192775   0.153789  0.0583603
-0.0256741   0.152605   0.056947
-0.0148703   0.157699  0.0571899
-0.0119484    0.15979  0.0575608
-0.00946636    0.163793   0.0576208
-0.0108398   0.161454  0.0576356
-0.0113363   0.156491   0.058919
-0.0869266   0.142702  0.0936773
-0.0815588   0.141846  0.0962922
0.00500737   0.153495   0.077041
-0.0156158   0.120408  0.0824205
-0.0564779   0.119521  0.0987342
-0.0844739   0.133231  0.0935103
-0.0161366   0.128473  0.0754173
-0.0150987    0.14525  0.0635558
-0.0245503   0.127115  0.0724419
-0.0762359   0.130421  0.0859636
-0.0642063   0.125491  0.0828861
-0.0487107   0.117554  0.0845178
-0.0276482   0.112749  0.0849225
-0.0745254   0.130564  0.0834434
-0.0565895   0.129129  0.0732401
-0.0393335   0.120388  0.0758718
-0.023531  0.134477 0.0672955
-0.0263525   0.147119  0.0601069
-0.0630548    0.13262  0.0727294
-0.0600038   0.139181  0.0649303
-0.0537938   0.132987  0.0665964
-0.0321313   0.134249  0.0637305
-0.0571986    0.13504  0.0663643
-0.0424198   0.135613  0.0613304
-0.0191085   0.140962  0.0652663
-0.0278978   0.135374   0.064588
-0.0416268   0.132958  0.0633828
-0.0841533   0.138299  0.0784793
-0.0614536    0.13382  0.0690463
-0.0553806   0.136548  0.0634004
-0.0503503    0.13344  0.0638456
-0.0716133   0.134119  0.0758549
-0.0810749   0.092597  0.0657821
-0.0847913   0.102174  0.0696313
-0.0600245   0.133553  0.0680053
-0.0745717    0.08211  0.0641287
-0.0729122  0.0768236   0.064102
-0.0745969  0.0457282  0.0708885
-0.0725743  0.0516077  0.0678808
-0.0735119   0.038378  0.0757684
-0.077845 0.0347346 0.0704649
-0.0729226  0.0675471  0.0631438
-0.0757147   0.055939  0.0655681
-0.0762402  0.0693571  0.0601339
-0.0834905  0.0915701  0.0613499
-0.0728552  0.0705643  0.0634112
-0.0762936  0.0775336  0.0631685
-0.0784364  0.0723783  0.0625743
-0.0817375  0.0525564  0.0667287
-0.0777865  0.0695833   0.062586
  -0.0781 0.0490126 0.0686459
-0.0778427  0.0355821  0.0730224
-0.0845457  0.0409755  0.0739849
-0.0853707  0.0444119   0.071494
 -0.08323 0.0889245 0.0611658
-0.082029 0.0448479 0.0707618
-0.108347  0.101197  0.051455
-0.105711  0.101568 0.0536793
-0.103247  0.101898 0.0556522
-0.0978759  0.0999472  0.0573613
-0.0922542  0.0973519  0.0586235
-0.0959268  0.0960761  0.0550175
-0.0901737  0.0942536  0.0583564
-0.0979849  0.0970435  0.0539035
 -0.11307 0.0533385  0.068193
-0.111653   0.04725 0.0720758
-0.101061 0.0467259 0.0699991
-0.0955494  0.0416702  0.0810396
-0.113943 0.0585929 0.0680415
-0.111355 0.0551084 0.0660558
-0.109215 0.0362996 0.0772017
-0.123818 0.0334661 0.0755559
-0.112904 0.0370583 0.0728746
-0.105679 0.0346075 0.0812836
-0.0901216  0.0394665  0.0755353
-0.0941674  0.0552905  0.0633082
-0.0875191  0.0512374  0.0679668
-0.0847535  0.0621535  0.0638949
-0.0949162  0.0479968  0.0759903
-0.0735683  0.0909422  0.0679224
-0.0861252  0.0837113  0.0626108
-0.0795462  0.0835077  0.0634218
-0.0796358  0.0788243   0.062781
-0.0826817  0.0898694  0.0648365
-0.0850011  0.0938987  0.0620986
-0.0896106   0.102827  0.0649506
-0.0986433   0.107228  0.0636796
-0.0875397   0.107773  0.0714315
-0.0831771  0.0998557  0.0690521
-0.0597632  0.0723882  0.0684235
-0.0688466  0.0928684  0.0715893
-0.0567271   0.092666  0.0813144
-0.0581894  0.0836882  0.0732423
-0.123511 0.0296018  0.086767
-0.126696 0.0378942   0.07956
-0.0551851  0.0376598  0.0856223
-0.100419 0.0382072 0.0855841
-0.119524 0.0300724 0.0877474
-0.117395 0.0298027 0.0886043
-0.121115 0.0365825 0.0830985
-0.132771 0.0201285 0.0921521
 -0.14628  0.021806 0.0837372
-0.134001 0.0317485  0.080911
-0.138969 0.0311602 0.0787279
-0.148494 0.0188177 0.0919964
-0.147588 0.0329342 0.0846197
-0.166708 0.0229667 0.0797799
-0.169757 0.0237554 0.0840971
-0.161038 0.0219411 0.0855347
 -0.15663 0.0212984   0.08503
-0.158538 0.0215761 0.0905648
-0.168613 0.0287783 0.0857237
-0.164717 0.0241465 0.0882587
-0.160698 0.0338699 0.0927576
-0.154893 0.0248115 0.0956911
-0.150136 0.0341533 0.0930647
 -0.14857 0.0337239  0.101241
 -0.14701 0.0400103  0.103826
-0.150366 0.0387805   0.10163
-0.159655 0.0266931 0.0938427
-0.156234  0.029714 0.0970762
-0.153178 0.0379382 0.0998372
  -0.1455 0.0406685  0.105341
-0.143769 0.0320964  0.101524
-0.137812 0.0269164  0.107544
-0.141189  0.026735   0.10524
-0.121521 0.0166762 0.0989145
-0.125852  0.017851 0.0967131
-0.140305 0.0238516  0.104061
-0.131816 0.0189966  0.105112
-0.129431 0.0221726  0.108614
-0.113736 0.0188845  0.113852
  -0.1106 0.0248848 0.0941411
-0.094928 0.0216784  0.096174
 -0.10793 0.0115238  0.107619
-0.0940187 0.00904307   0.110497
-0.0723916  0.0381276   0.106967
-0.0599977   0.030185  0.0884362
-0.0635983  0.0565095  0.0917863
-0.0402869  0.0571174  0.0835764
-0.0411123  0.0436603  0.0896423
-0.0319384  0.0582045  0.0891777
-0.0483705  0.0789691  0.0790466
-0.0474594   0.082871  0.0852601
-0.0495574  0.0905188  0.0870001
-0.060952  0.113694 0.0885809
-0.0622141   0.120565  0.0958569
-0.0510307   0.112301  0.0904983
-0.0893507   0.129023  0.0983966
-0.0838372   0.130944   0.100374
 -0.10688  0.137713 0.0969136
-0.102953  0.136703 0.0971891
-0.0974074   0.135222  0.0981874
-0.0975711   0.136236  0.0958612
 -0.10544  0.125616 0.0970301
-0.108977  0.131598 0.0953721
-0.0941807   0.135429  0.0959118
-0.0889206   0.133818  0.0970741
-0.0750349   0.127068   0.095483
-0.0672801   0.116843  0.0880202
-0.102863  0.137617 0.0952735
-0.098937  0.137784 0.0901207
-0.0846546   0.126592  0.0870033
-0.073203   0.12009 0.0881935
-0.0409494     0.1134  0.0974976
-0.0543754   0.124846   0.104972
-0.0664932   0.142414   0.101098
-0.107651  0.138977 0.0945893
-0.0546883   0.140583   0.103524
-0.0395713     0.1361   0.106253
-0.00874885    0.132878   0.0963625
-0.0616108   0.170528  0.0824893
-0.00053691    0.114694    0.101313
-0.0444345   0.139465   0.111727
-0.040349  0.130703  0.109518
-0.016456  0.125673  0.101238
-0.0499126   0.136265   0.105217
-0.048698  0.139231  0.110739
-0.125251  0.142879 0.0939641
-0.126235  0.142248 0.0956461
-0.121867  0.141581 0.0953009
-0.119545  0.140971 0.0956613
-0.127082  0.141702 0.0911424
-0.133597  0.146025 0.0897528
-0.129584  0.143726 0.0937755
-0.130076  0.142617 0.0960969
-0.138491  0.143054 0.0962416
-0.138194  0.144267 0.0937191
-0.138001   0.14507 0.0921008
 -0.13907  0.147563 0.0876307
-0.139113  0.130537 0.0882244
-0.137641  0.150398 0.0823473
-0.141274  0.143548 0.0861913
-0.146908  0.137335 0.0847904
-0.129426  0.147668 0.0855925
-0.128621  0.141363 0.0908239
-0.135101  0.132178 0.0898963
-0.130939  0.136384 0.0904885
-0.119449  0.144965 0.0872198
-0.121338   0.14084 0.0782274
-0.124173  0.146477  0.085697
 -0.11675  0.140271 0.0803537
-0.115662  0.143783 0.0880582
-0.110555  0.142631 0.0873942
-0.113401  0.133047  0.092689
-0.122658  0.138667 0.0921589
-0.121689  0.135973 0.0929575
-0.119684  0.141388 0.0928129
-0.122889   0.14318 0.0922814
-0.116313  0.137695 0.0937413
-0.119113  0.130063 0.0941914
-0.111913  0.139122 0.0942206
-0.111086  0.139711 0.0950883
-0.111717  0.138247  0.098497
-0.122098  0.142207 0.0939445
-0.116093  0.139173 0.0983698
-0.115934  0.140657 0.0951479
-0.144882  0.144957 0.0928382
 -0.14531  0.135223 0.0988621
-0.145914  0.144224 0.0948384
-0.149597  0.145053 0.0926956
-0.152997  0.148225 0.0867319
 -0.15547  0.149001 0.0853269
-0.154993  0.148255 0.0873633
-0.156893  0.137114 0.0936597
-0.148865  0.146644 0.0890757
-0.141926  0.147016 0.0881601
-0.145733  0.145587 0.0876922
-0.148862  0.149055 0.0845474
-0.155443  0.152364 0.0786211
-0.152382  0.150715 0.0821493
 -0.14794  0.152284 0.0751241
-0.164765  0.143529 0.0781053
-0.159935  0.152572 0.0781555
-0.169223  0.156837 0.0730637
-0.163464  0.152067 0.0792038
-0.159292  0.150481 0.0819176
 -0.15581  0.150286 0.0825326
-0.159614   0.14852 0.0865119
-0.162877  0.150663 0.0818979
 -0.17467  0.158097 0.0720941
-0.173151  0.157268 0.0734839
-0.167665  0.154245 0.0764769
-0.171765  0.152903 0.0793421
-0.177178  0.157492 0.0741948
-0.180354  0.159845 0.0703816
-0.176898  0.155269 0.0774129
-0.173953  0.147625 0.0850406
-0.167108  0.150581 0.0825008
-0.166682  0.146076  0.092909
-0.160334  0.145926  0.094433
-0.153652  0.144555 0.0950975
-0.151677  0.146183  0.090608
-0.155045  0.146879  0.090134
-0.168297  0.148053 0.0876597
-0.165813   0.14726 0.0895949
-0.170413  0.146038 0.0923495
-0.187964   0.14405  0.103099
-0.173323  0.142216 0.0970443
-0.183305  0.147172 0.0943733
-0.20132 0.139269 0.106704
-0.201746  0.140378  0.105205
-0.205498  0.145557  0.100649
-0.204869  0.146518 0.0999587
-0.202975   0.15292 0.0973361
-0.208068  0.164757 0.0819284
-0.205959  0.143665  0.101675
-0.208441  0.147636 0.0992262
-0.196932  0.153717  0.089989
-0.195179  0.161435 0.0713499
-0.193703  0.147127 0.0982865
 -0.20619  0.150226 0.0722095
-0.188189  0.156048 0.0752445
-0.200628  0.153827 0.0728196
-0.205622  0.148393 0.0735088
-0.207766  0.155314 0.0684802
-0.198354  0.159533 0.0690941
-0.179091  0.159332 0.0714814
-0.183034  0.160224 0.0704468
-0.190912  0.152556 0.0712555
-0.189847  0.156034 0.0802776
-0.182954  0.150113 0.0876223
-0.191683  0.145487  0.100625
-0.192738  0.153105 0.0883748
 -0.18937  0.150495 0.0908265
-0.204337 0.0505695 0.0753661
-0.201982 0.0452398 0.0747468
-0.201033 0.0553405 0.0866482
-0.195673 0.0481885 0.0833415
-0.202648 0.0469882 0.0745852
-0.198234  0.041913 0.0769619
-0.186629 0.0345866 0.0798458
-0.193905 0.0446931 0.0844828
 -0.17781 0.0447215 0.0849695
-0.182926 0.0318285 0.0798348
-0.143198  0.147689  0.086655
-0.145953  0.148596 0.0851357
-0.179227  0.040955 0.0825649
-0.185307 0.0327259 0.0787229
-0.195966 0.0393449 0.0757138
-0.199966 0.0425714 0.0755764
-0.193435 0.0369789  0.075658
-0.189527 0.0390897 0.0763078
-0.178971 0.0354219 0.0775465
-0.143868  0.152063 0.0802919
-0.188298 0.0321021 0.0755427
-0.194371  0.036731 0.0738475
-0.213259 0.0710868 0.0714777
-0.218088 0.0753445 0.0690307
-0.214575 0.0699386 0.0698473
-0.210498  0.073214 0.0740301
-0.210696 0.0658004  0.072308
-0.204002 0.0489609 0.0734995
-0.201265 0.0410786 0.0715701
-0.197044 0.0392638 0.0738512
-0.189512 0.0390004 0.0834248
-0.209605 0.0519758 0.0861151
-0.198183 0.0451876  0.084221
-0.192454 0.0457884 0.0864152
-0.188295 0.0426197 0.0900962
-0.193106 0.0522858 0.0930746
-0.198403 0.0488856 0.0887073
-0.204317 0.0490184 0.0861227
-0.182309 0.0351218 0.0854384
 -0.17575 0.0357538 0.0798581
-0.176957 0.0273227 0.0798464
-0.175614 0.0256009 0.0803836
-0.164665 0.0297382 0.0914725
-0.165002  0.041752 0.0889289
-0.177498  0.035177 0.0838085
-0.175681  0.030034  0.083588
-0.170789 0.0284699 0.0861395
-0.184066 0.0410529 0.0917562
-0.177157 0.0337364 0.0891642
-0.162154 0.0291976 0.0931687
 -0.17137 0.0315288 0.0915704
-0.160012 0.0271887 0.0940243
-0.175155 0.0387244 0.0964894
-0.165998 0.0292022 0.0926978
-0.179769 0.0390739 0.0932386
 -0.18661     0.047 0.0961516
-0.189193 0.0501242  0.097294
-0.182821 0.0458891 0.0982018
 -0.20088 0.0546216 0.0937741
-0.194419 0.0468057 0.0898641
-0.190618 0.0506852 0.0963222
-0.206537 0.0563846 0.0933308
-0.212504 0.0576101 0.0928585
-0.210805  0.056943 0.0918227
-0.212151 0.0562182 0.0947919
-0.209171 0.0533604 0.0895629
-0.0463333  0.0216901    0.10128
-0.0297656   0.106728  0.0930578
-0.0242062  0.0419629   0.100033
-0.0148823  0.0816036  0.0975229
-0.0478973  0.0192836   0.125209
-0.0485061  0.0305748    0.12479
-0.038642 0.0327163  0.123089
-0.010064 0.0419068  0.109612
-0.047329 0.0546995   0.13428
-0.0435193  0.0201268   0.129917
-0.0302176  0.0298802   0.128765
-0.0204656  0.0413392   0.126689
-0.0325092   0.027641   0.128618
-0.0495671  0.0521453   0.144049
-0.0529731  0.0271452   0.137045
-0.0601177  0.0276607   0.134299
-0.0470673  0.0300343   0.134074
-0.0389093  0.0254472   0.130465
-0.0354474  0.0450727   0.128053
-0.0333413  0.0226461   0.127568
-0.0533972   0.108671   0.128883
-0.0476658   0.111362   0.117833
-0.0408963    0.11433   0.114244
-0.0606609   0.115173   0.123059
-0.0452576   0.113395   0.116105
-0.0348649   0.109913   0.116471
-0.0189491  0.0553433   0.129304
-0.030223  0.111933  0.108317
-0.0242295   0.111155   0.101057
-0.0185046  0.0662281   0.118321
-0.00558905   0.0855046    0.102085
-0.0118561  0.0987152   0.102089
-0.028587 0.0663627  0.125247
-0.016224 0.0958205  0.096204
-0.0417629   0.116065   0.108352
-0.042441  0.116738  0.105789
-0.0562318   0.111216   0.113273
-0.0522659    0.11997   0.106923
-0.058367  0.116984  0.115149
-0.0629022   0.116349    0.12081
-0.057998  0.117047  0.117618
-0.0538035   0.112907   0.123617
-0.0635794   0.124173   0.122432
-0.0628239   0.128171   0.112309
-0.0602285   0.126512    0.11526
-0.0665718   0.129317   0.114111
-0.068472  0.130257  0.107579
-0.0735735   0.133249   0.100897
-0.0700437   0.136588   0.102622
-0.0736033     0.1364   0.101809
-0.0682323   0.132441   0.102903
 -0.0694 0.135885 0.111357
-0.0663895   0.129035   0.102942
-0.06331 0.137062 0.104782
-0.0683494    0.14428   0.103592
-0.0642212   0.143637   0.105574
-0.0687899   0.138729   0.103088
-0.059765  0.149298  0.109067
-0.06352 0.152177 0.110126
-0.0597582   0.143813   0.108029
-0.0573437   0.137329   0.107429
-0.0626001   0.132709   0.104716
-0.0561632   0.138362   0.109718
-0.0525434   0.138441   0.109272
-0.0500156   0.142454   0.111293
-0.0552601   0.153611   0.111447
-0.0556454   0.150124   0.110917
-0.0514302   0.149745   0.112229
-0.0486407   0.139033   0.115486
-0.0565785   0.129702   0.105819
-0.0517117   0.138108   0.117186
-0.0459521   0.131688   0.108711
-0.0483477   0.126894   0.107035
-0.0598108   0.128679   0.104634
-0.0538441   0.124499   0.104987
-0.0439934   0.114845   0.115014
-0.0382281   0.115683   0.106971
-0.042205  0.114333  0.117449
-0.0498451    0.11469   0.120892
-0.0477953   0.118578   0.106332
-0.0437847    0.12387   0.106637
-0.0483926   0.119619   0.105473
-0.025671  0.129744  0.111328
-0.0274713   0.130355   0.112915
-0.0148459   0.127649   0.113342
-0.0357159   0.129328   0.109723
-0.0406287    0.12481   0.108238
-0.0332955    0.12289   0.107886
-0.0217697   0.128277    0.12459
-0.0220233    0.12931   0.120253
-0.0159382   0.122553   0.110228
-0.010356  0.123257  0.111392
-0.020747  0.124063  0.109087
-0.0263702    0.12483   0.113169
-0.0316656   0.125826   0.114832
-0.0368195   0.135156   0.112023
-0.0364022   0.135725   0.115517
-0.0140525   0.129883   0.110664
-0.0228639   0.132502   0.112243
-0.0318611   0.137451   0.113605
-0.0172873   0.142297   0.118453
-0.0221153   0.145882   0.116603
-0.0280889   0.144762   0.115793
-0.0402465   0.137579   0.112169
-0.216991 -0.113656 0.0314356
-0.219713 -0.128897  0.025827
-0.222172   -0.1151 0.0330934
-0.228047 -0.116277   0.01101
-0.247639 -0.117644  0.023986
 -0.233702  -0.140294 -0.0105094
  -0.229648   -0.140696 -0.00778004
  -0.226475   -0.140506 -0.00280279
 -0.225817  -0.139261 0.00240744
  -0.251151   -0.143839 -0.00623199
  -0.253344   -0.140134 -0.00143002
-0.247276 -0.132199 0.0114089
 -0.223198   -0.13709 0.00838217
 -0.229049  -0.136939 0.00767207
 -0.236645  -0.135094 0.00953012
 -0.287156  -0.133112 0.00248082
 -0.285582  -0.133689 0.00337039
 -0.286312   -0.13407 0.00302756
 -0.273972  -0.134169 0.00757531
  -0.290592    -0.13249 0.000433603
 -0.272242  -0.131626 0.00460156
 -0.276514  -0.132955 0.00655484
-0.279699 -0.134155 0.0059869
 -0.283867  -0.133808 0.00413335
  -0.289587    -0.13396 0.000450909
 -0.288464  -0.131782 0.00179515
 -0.272833  -0.137157 -0.0076658
  -0.269308   -0.139881 -0.00829191
  -0.285843   -0.127849 -0.00398952
  -0.288641   -0.126977 -0.00530442
   -0.29538   -0.124222 -0.00663969
  -0.301258   -0.128839 -0.00979373
  -0.299832   -0.123249 -0.00675724
  -0.280597   -0.130281 -0.00134872
 -0.275669  -0.130122 0.00420937
 -0.278951  -0.129365 0.00237457
  -0.295434   -0.130912 -0.00317463
 -0.28935 -0.136552 0.0015857
 -0.275767  -0.135351 0.00731568
 -0.268471  -0.134036 0.00975546
 -0.270424  -0.133626 0.00878081
  -0.28781  -0.137579 0.00126673
 -0.282598  -0.138604 0.00493114
  -0.27901    -0.1347 0.00636846
 -0.272693  -0.137221 0.00868076
-0.267645 -0.135762 0.0106511
 -0.275004  -0.137724 0.00807493
 -0.278754  -0.139904 0.00699919
 -0.280053  -0.143721 0.00592922
 -0.276802   -0.14172 0.00774499
  -0.28111  -0.139335 0.00547369
 -0.284933  -0.140793 0.00416875
  -0.28767   -0.13629 0.00283582
 -0.271504  -0.138626 0.00952589
 -0.274228   -0.13857 0.00856478
-0.268958 -0.144155 0.0128115
-0.272801 -0.144611 0.0108434
-0.267519  -0.13931 0.0118634
-0.265127 -0.140769 0.0143873
-0.256978  -0.13536 0.0185902
-0.246025 -0.138129 0.0227961
-0.239905 -0.146354 0.0202451
-0.251772 -0.142236 0.0179508
-0.238706 -0.142416 0.0214313
-0.234582 -0.138793  0.024026
-0.229675 -0.135336 0.0269428
-0.233657 -0.140634 0.0242457
-0.237189 -0.143917 0.0217078
-0.231914 -0.136904 0.0254828
-0.230117 -0.130399 0.0275843
-0.247759 -0.141308 0.0182333
-0.261819 -0.144676 0.0128737
-0.256123 -0.139435 0.0160807
-0.228524 -0.127775 0.0268905
-0.261013 -0.130727 0.0141146
-0.264473 -0.130811 0.0119331
-0.234375 -0.138416 0.0238219
-0.225422 -0.127948 0.0269039
-0.219924 -0.130678 0.0246925
-0.257208 -0.129935 0.0139886
 -0.262372   -0.13246 0.00912986
 -0.269433  -0.134973 0.00143041
 -0.264351  -0.135059 0.00511991
-0.259879 -0.133994 0.0067001
 -0.258094  -0.137124 0.00178897
 -0.261961  -0.136899 0.00247622
  -0.266333   -0.140198 -0.00599475
 -0.255436  -0.136595 0.00355331
 -0.25376 -0.132073 0.0110849
-0.241138 -0.131281   0.01727
-0.226806 -0.132956 0.0185049
-0.219753  -0.14051 0.0162839
-0.223543 -0.133412  0.019877
-0.248735 -0.129557 0.0233399
-0.226834 -0.132159 0.0203755
-0.231318 -0.131565 0.0199056
-0.219619 -0.134878 0.0211019
-0.231293 -0.127565 0.0268106
-0.222671 -0.133876 0.0221406
