 -0.26346  0.113671 0.0894344
-0.259694  0.112166 0.0919877
-0.259873  0.139925   0.13855
-0.253779  0.109073  0.111274
-0.226302 0.0974302 0.0951656
-0.237698  0.105411  0.100873
-0.254107  0.109122  0.110913
-0.237414  0.105955 0.0898643
-0.232567  0.108995 0.0463018
-0.234724  0.107032 0.0800117
-0.182641 0.0960059  0.045761
-0.138782  0.083809 0.0509351
 -0.18782 0.0974496 0.0603696
-0.206914  0.101959 0.0761435
-0.182973 0.0955535 0.0502853
-0.202547  0.102056 0.0451657
-0.178869 0.0942861 0.0460458
-0.174308 0.0930387 0.0469251
-0.161233 0.0895235 0.0650179
-0.132325 0.0811357 0.0515513
-0.140479   0.08374 0.0455161
-0.0167761    0.19152  0.0406664
-0.044798  0.181514 0.0457413
-0.105696 0.0591475 0.0282379
-0.121245 0.0787136 0.0390896
-0.112758 0.0752084 0.0420927
-0.107515 0.0623949 0.0504106
-0.106188 0.0577138 0.0391744
-0.054258   0.17551 0.0455849
-0.104539 0.0749958 0.0772045
-0.141091 0.0839322 0.0941963
-0.136037 0.0835483  0.110001
-0.115395 0.0791242  0.110868
-0.105076 0.0747966  0.101775
-0.165132 0.0908171  0.084634
-0.148909 0.0865689 0.0805376
-0.149577 0.0863336 0.0966754
-0.236088  0.105098  0.107098
-0.181603 0.0945054  0.110915
-0.214115  0.100686  0.132343
-0.230011   0.10301   0.13372
-0.0804468  0.0742892   0.130797
-0.0146511     0.1838   0.119236
-0.0372359   0.192871   0.128077
-0.045631  0.201366  0.165626
-0.00674808    0.105269    0.203621
-0.0527817  0.0853838   0.170465
-0.0630949  0.0864169   0.188566
-0.0522167   0.105782   0.234861
-0.0719396   0.106568   0.239952
-0.102277 0.0805328  0.138254
-0.182814 0.0931945  0.165102
-0.119916 0.0838276  0.141809
-0.115095 0.0829749  0.138702
-0.216275  0.100613  0.135142
-0.0790817   0.072177   0.119546
-0.129162 0.0831432  0.124831
-0.0887445  0.0765478   0.131811
-0.130027 0.0832576   0.12469
-0.163373 0.0897111    0.1335
-0.236961  0.119439  0.166634
-0.0755138   0.208773   0.158847
-0.159833  0.252445  0.218242
-0.273402  0.226991  0.236434
-0.343754  0.207722  0.399929
-0.279972  0.299907  0.285455
-0.226259   0.25045  0.142177
-0.198088  0.221799  0.111968
-0.13392 0.225142 0.102309
-0.107644  0.212185 0.0938939
-0.112386  0.214273 0.0955423
-0.126115  0.222049  0.108287
-0.13214 0.226942 0.119668
-0.165068  0.241657  0.126976
-0.136264  0.373419  0.179851
-0.185051  0.263593   0.12923
-0.37657 0.557513  1.39285
 -0.1766 0.266672 0.176596
-0.165078  0.242762  0.141008
-0.177033  0.263342  0.247888
-0.156946  0.239062   0.13266
-0.108054  0.213762   0.11833
-0.12727 0.225576 0.125304
-0.128808  0.226313  0.125898
-0.0876382    0.27191   0.324212
-0.0582425   0.265732   0.190201
-0.0754352   0.208239   0.156119
-0.0604774    0.21141   0.197565
-0.0543813   0.198094   0.135299
-0.0472642   0.194545   0.123269
-0.0784343   0.207506   0.146644
-0.081519  0.206963  0.138171
-0.0655919   0.196961    0.10118
-0.0862898     0.2035  0.0937045
-0.100295  0.209726  0.108886
-0.103193  0.213499  0.130496
-0.108164  0.218483   0.14905
-0.180014  0.245126 0.0932551
-0.147253  0.231796  0.076501
-0.133285  0.225199 0.0740267
-0.106993  0.214615 0.0661726
 -0.12589  0.221145 0.0831982
 -0.15159  0.233799 0.0809589
-0.173703  0.243064 0.0940511
-0.0940455    0.20764  0.0794339
-0.072907  0.197997 0.0822436
-0.0649347   0.193079  0.0783583
-0.0831314   0.202157   0.061205
-0.0778815   0.200338  0.0717806
-0.0852542   0.203181  0.0891415
-0.095357  0.209387 0.0626078
-0.114743  0.217919 0.0562462
-0.0924275    0.20736  0.0556796
 -0.10166  0.212453 0.0396128
-0.118869  0.219674 0.0380983
-0.0984103   0.211157  0.0288023
-0.0203437    0.19039  0.0370517
-0.0557971   0.180928  0.0509906
 -0.13748  0.227417 0.0638905
-0.112707  0.217297 0.0569685
-0.122625  0.221566 0.0385584
 -0.14801   0.23212 0.0622579
-0.167694  0.239594 0.0481656
-0.124102   0.22211 0.0407347
-0.132906  0.226089 0.0517156
-0.166154  0.239197 0.0504038
-0.0845761   0.434346   0.024241
-0.249885  0.275784  0.172312
-0.245065  0.271329  0.147533
-0.233089  0.341838  0.128928
-0.23397 0.263285 0.118308
-0.209672   0.25483  0.111412
-0.191755  0.249938  0.114426
-0.169252  0.241785  0.107509
-0.219856   0.25571 0.0874747
-0.229064  0.258611 0.0850703
-0.252434  0.267916  0.102716
-0.264194  0.270655 0.0805614
-0.32516 0.330974 0.391692
-0.293457  0.282925 0.0839484
-0.259772  0.268866 0.0679858
-0.266053  0.273648 0.0452965
-0.275128  0.275229 0.0619956
-0.40856 0.321109 0.141224
-0.413258    0.3865  0.185468
-0.618839  0.126525  0.415839
-0.424925   0.21848 0.0984343
-0.538164  0.136533  0.276284
-0.540555  0.137266  0.309645
-0.407368  0.301467  0.123728
-0.418505  0.147462 0.0729618
-0.298795  0.127778 0.0407815
-0.313314   0.13214 0.0356831
-0.314777  0.133314 0.0316414
-0.318028   0.31414 0.0464706
-0.373391  0.345341  0.141487
-0.344321  0.339845 0.0640161
  -0.376891    0.154629 0.000163716
 -0.264457   0.286778 -0.0397116
 -0.329314   0.148814 -0.0180371
  -0.338421    0.147786 -0.00937094
  -0.295489    0.136222 -0.00508667
  -0.294588    0.134262 0.000940331
  -0.309986    0.140743 -0.00490011
-0.321787  0.138513  0.014895
 -0.338523   0.144164 0.00396628
 -0.350411   0.146988 0.00136958
-0.421335  0.154614 0.0329815
-0.383855  0.150529  0.022752
  -0.395655    0.159843 -0.00182611
 -0.319417   0.340142 -0.0159815
 -0.258498   0.278136 -0.0621329
 -0.294251   0.322278 -0.0515117
  -0.28097   0.311236 -0.0653285
-0.295151  0.346928 -0.109135
-0.271594  0.327752  -0.16745
-0.268638  0.342032 -0.190267
 -0.339096   0.299932 -0.0732343
-0.257596  0.359337 -0.270851
-0.296953  0.442994 -0.299104
 -0.441173   0.187084 -0.0434488
-0.413933  0.191987 -0.082233
 -0.418218   0.177546 -0.0374871
 -0.423804   0.176191 -0.0294591
 -0.426317   0.183043 -0.0460677
 -0.393762   0.185823 -0.0831534
 -0.389032   0.177546 -0.0608213
 -0.325001   0.164907 -0.0794714
-0.288545  0.165468 -0.116666
 -0.294808   0.168842 -0.0483481
 -0.271682   0.245321 -0.0471942
 -0.362515   0.154508 -0.0121857
  -0.31212   0.149952 -0.0302343
 -0.379811   0.170167 -0.0463369
 -0.378691   0.162806 -0.0247388
 -0.429359    0.17031 -0.0107842
 -0.367549   0.175573 -0.0708451
 -0.358723    0.17884 -0.0882018
 -0.406098   0.182371 -0.0616652
 -0.382186   0.170256 -0.0451814
 -0.390698   0.166894 -0.0286243
 -0.324789   0.124288 -0.0639839
 -0.331976   0.163299 -0.0660653
 -0.337594   0.105991 -0.0487387
 -0.346363   0.168744 -0.0678515
-0.391094  0.227738 -0.219846
-0.220693  0.386979  -1.08197
-0.427738 0.0503602  -0.38268
 -0.468731  0.0119375 -0.0995994
-0.296893 0.0607053 -0.465172
-0.429139 0.0211856 -0.175159
-0.294393  0.051917 -0.188435
-0.251659 0.0904748 -0.460339
-0.199795  0.144493 -0.380705
 -0.42243 0.0182827 -0.159073
-0.305302  0.052952  -0.16112
-0.319417 0.0899062 -0.101605
-0.311402 0.0678168 -0.134835
-0.178918 0.0645436 -0.313402
-0.190179  0.182119 -0.331757
   -0.584262 -0.000206394     0.043438
-0.392599 0.0865975  0.089375
-0.381136   0.09428 0.0565945
-0.376756  0.141293  0.069021
-0.464036  0.139071 0.0260027
  -0.36666   0.149848 0.00832307
-0.402759  0.156268 0.0150482
 -0.371685   0.152821 0.00260816
   -0.3374   0.148395 -0.0118944
 -0.298523    0.14689 -0.0334304
 -0.329456   0.151213 -0.0278049
 -0.327678     0.1418 0.00520558
-0.334808  0.140455 0.0182918
-0.361518  0.144795 0.0254692
-0.316168  0.136561 0.0175039
-0.352791  0.140318 0.0378799
-0.368027  0.141246 0.0571681
-0.304357  0.133382 0.0163334
-0.318803  0.131349 0.0482685
-0.296444   0.12801 0.0341622
 -0.284505   0.130805 0.00253513
 -0.289562   0.131449 0.00619578
-0.327073  0.134703 0.0399319
-0.318574  0.132985 0.0388804
-0.340432  0.136519 0.0455985
 -0.274807    0.13547 -0.0220618
 -0.291155   0.146965 -0.0416001
  -0.274577    0.130004 -0.00447277
 -0.261844   0.136273 -0.0687633
-0.235592  0.111957 0.0296174
 -0.198351   0.108772 0.00581082
   -0.179973     0.102792 -0.000935578
-0.129943 0.0915881 -0.030586
-0.151197 0.0891637 0.0253756
-0.173464 0.0947303 0.0301275
 -0.116844  0.0891032 -0.0473712
-0.176947 0.0961792 0.0283027
-0.205775  0.103876 0.0386123
-0.144761 0.0855921 0.0344149
-0.213627  0.106079 0.0342621
-0.0895948   0.208068 -0.0156035
-0.0937159   0.210015  -0.020005
-0.108758  0.215846 0.0218906
-0.117182  0.197412  0.033168
  -0.11055    0.13376 0.00523662
-0.0649448   0.188407 -0.0563922
-0.0725561   0.129506 -0.0100036
-0.0472142   0.186662  -0.037788
-0.059173  0.163838 0.0122634
-0.0666037   0.149433  -0.016369
-0.0551613  0.0878778 0.00793311
 0.00453565   0.0500139 -0.00729393
-0.0208762  0.0639314 0.00854261
-0.0764113  0.0929273 -0.0941367
-0.0144345  0.0604875 -0.0195717
-0.0509104  0.0818837 -0.0307036
 -0.077342   0.117375 -0.0765905
-0.0673341   0.150748 -0.0667425
-0.0329733  0.0744183  -0.258953
-0.0394499   0.122514  -0.326814
-0.0189022   0.141768  -0.257961
 -0.114335  0.0842636 -0.0282785
 -0.164718  0.0997433 -0.0111726
-0.112182  0.108222 -0.163676
-0.196219  0.105441 0.0150603
  -0.229118    0.115595 -0.00191048
-0.165144 0.0760277 -0.244626
 -0.217586  0.0599064 -0.0636266
-0.192545  0.102071 -0.100296
-0.216572  0.127258 -0.067734
-0.177337  0.125495 -0.124335
 -0.200538   0.118325 -0.0504022
-0.151463  0.201452 -0.111799
-0.0830964    0.23381  -0.490225
-0.247512  0.163124 -0.157654
 -0.266791   0.138591 -0.0420321
 -0.279948   0.140062 -0.0328524
   -0.20463    0.112328 -0.00996175
 -0.12839  0.167702 -0.262788
-0.0610399   0.158839  -0.193955
 -0.151348   0.237651 -0.0545868
  -0.13558   0.229869 -0.0386615
-0.199888  0.253214 0.0135005
  -0.273851    0.269313 -0.00770585
-0.243823  0.228175  -0.18293
-0.278395  0.227584 -0.042391
-0.0986182   0.255422  -0.574613
 -0.198525   0.257858 -0.0597151
  -0.18609   0.251696 -0.0300385
 -0.192149   0.252813 -0.0100609
-0.182294  0.268751 -0.283743
 -0.01197  0.385082 -0.589744
  -0.2384  0.279177 -0.103757
  -0.267217    0.283069 -0.00621051
 -0.234531     0.2708 -0.0415662
-0.295961  0.300048 0.0144351
-0.118026  0.280859 -0.126225
  -0.115717    0.347028 -0.00579941
0.0212055  0.295785 -0.328133
 -0.0470129     0.28552 -0.00134229
-0.0153495   0.211227  -0.265211
-0.000384049     0.229233    -0.500035
-0.017209  0.241754 -0.413359
-0.0953453   0.211553 -0.0384648
  -0.102218    0.213295 -0.00151534
-0.194922  0.249528 0.0280398
-0.204061  0.253724  0.019784
-0.218036   0.25805 0.0238519
-0.236891   0.26475 0.0229321
-0.267657  0.277812 0.0258523
-0.218133  0.256404 0.0360065
-0.201236  0.250434 0.0386134
-0.120184  0.220595 0.0280112
-0.179194  0.243766 0.0316414
-0.0741779   0.192908  0.0106608
-0.0304026   0.192617 -0.0227756
-0.101637  0.212498 0.0237346
-0.00237829    0.216105    -0.06937
-0.00578162     0.21113  -0.0565089
 -0.0191975    0.196558 -0.00773117
-0.00452347    0.203558   0.0152063
 0.00134034    0.243272 -0.00587944
 0.010264   0.26081 0.0299296
0.0266815  0.257822 -0.189794
-0.0103513   0.267347 -0.0148789
 0.151153  0.556633 -0.138136
 0.206591  0.735598 -0.184986
  0.147865    0.31269 -0.0761225
 0.017407  0.249135 -0.239804
  0.0287096    0.165963 -0.00379385
0.0278159  0.165153 0.0118719
0.00897634   0.188211 -0.0709779
 0.0204346    0.17503 -0.0295016
0.0401694  0.246554 0.0200477
 0.0243205   0.240516 -0.0400797
0.00819363   0.216334 -0.0170364
 0.0440829   0.261367 0.00161593
 0.0477405   0.284515 -0.0736211
 0.359408   0.78784 -0.208512
  0.138771   0.263882 -0.0449879
0.128834 0.227697 -0.03068
0.0740868  0.203047  -0.20499
0.115638  0.44851 -0.54125
 0.0755069   0.114616 -0.0797154
0.0292417  0.187355 -0.462198
0.0529175  0.111312 -0.212123
  0.0854606   0.0892296 -0.00713469
  0.08289 0.0938377 -0.023352
0.00903149   0.090914  -0.297367
0.0235137  0.138127 -0.200814
-0.0030266  0.0758825  -0.270295
-0.0133437  0.0527679  -0.232356
0.0466638 0.0183454 -0.137252
  0.119454  0.0422711 -0.0208046
  0.125641  0.0490581 -0.0221358
  0.138993  0.0401797 -0.0171703
 0.140549 0.0614863 0.0139922
  0.139352  0.0155706 -0.0461714
  0.158728  0.0243352 0.00424031
   0.16242  0.0242605 0.00242618
   0.159446 -0.00211182  -0.0496512
  0.167582 0.00364289 -0.0797555
  0.173288 0.00869775  -0.105977
  0.201802 0.00017616 -0.0354168
 0.122504 0.0210482  -0.12311
  0.147617 0.00416282 -0.0507507
  0.146781 0.00742433 -0.0802517
  0.187368 -0.0329234 -0.0164773
  0.130118 -0.0117755  -0.036436
   0.119307 -0.00729993  -0.0425113
  0.204882 -0.0187058 -0.0400284
  0.204675 -0.0207256 -0.0239001
   0.187227 -0.00321591 -0.00847032
   0.200231  -0.0144923 -0.00948178
   0.164124 -0.00233849  -0.0370772
  0.107862 -0.0137698 -0.0284869
   0.125666   -0.033045 -0.00723617
  0.112893 -0.0218993 -0.0174749
 0.0458504 -0.0470161  0.0339124
  0.037908 -0.0233048  0.0030406
 0.0573501 -0.0322474  0.0352839
  0.060469 -0.0321214  0.0407569
 0.0253434 -0.0175687  0.0270696
 0.0596672 0.00648751 -0.0160151
  0.0461489   0.0150582 -0.00131768
0.0568016 0.0309479 0.0259688
  0.0247351   0.0373321 -0.00606372
  0.0191265 -0.00356502 -0.00941764
0.0481833 0.0553504 0.0224582
  0.0739027   0.0722284 -0.00247268
 0.109234 0.0192879 0.0149719
  0.0947068  0.00471837 -0.00195811
 0.0944001  0.0185768 -0.0316386
 0.0825227 0.00220497 0.00806059
   0.07603 0.00763306  0.0188451
0.0763247 0.0120998 0.0285357
0.0708075 0.0164544 0.0301191
 0.0887222 0.00299005  0.0345524
 0.0798442 0.00223553  0.0131564
  0.0816979 -0.00191756   0.0231303
 0.0708895 -0.0178695  0.0168459
 0.0627772 -0.0279263  0.0385173
   0.102808 -0.00728861   0.0315447
  0.0831211  -0.0170846 0.000489287
  0.0879634  -0.0174818 -0.00517599
 0.0645089   -0.02055 0.00109451
 0.0783327 -0.0151999   -0.02143
  0.102156 -0.0259731 0.00414588
  0.263624 -0.0370555 -0.0534716
  0.229302 -0.0223843 -0.0642365
  0.221267 -0.0325188 -0.0278292
  0.250281 -0.0226994 -0.0358206
  0.239195 -0.0187392 -0.0492188
 0.113849 0.0671863  -0.28116
   0.198367 -0.00267646   -0.100616
   0.25154 -0.0241923 -0.0354839
 0.251989  0.100918 -0.165572
 0.484075  0.127096 -0.150479
  0.444209  0.0909951 -0.0280295
   0.44552  0.0718362 -0.0638382
  0.426414 -0.0210051 -0.0789653
  0.421918 -0.0522263 -0.0920411
  0.436389 -0.0220196  -0.081807
  0.457331 -0.0543942   -0.12696
  0.466457 -0.0549072 -0.0915215
   0.228598 -0.00823835   -0.148866
  0.273418 -0.0350228 -0.0939271
  0.269524  -0.033966 -0.0919993
  0.340493  -0.060693 -0.0580121
  0.323853 -0.0464619  -0.128687
  0.491288 -0.0577567 -0.0881077
   0.49727 -0.0110254 -0.0573191
  0.232827 0.00486783  -0.227554
 0.269804  0.079405 -0.217851
 0.194896 0.0985264  -0.29444
 0.147331 0.0851098 -0.397487
 0.444887 0.0185364 -0.164897
   0.45961  0.0129355 -0.0585104
0.465563 0.123549 -0.29996
 0.473155  0.283724 -0.158369
  0.459542   0.133889 -0.0471617
 0.471189  0.151788 -0.114818
 0.251351  0.133253 -0.189092
0.0391593  0.213957 -0.526875
0.0104331  0.260646 -0.549256
  0.237646   0.222424 -0.0964181
 0.422689  0.214865 0.0134527
 0.421662  0.167229 0.0158647
 0.385441  0.178512 0.0661464
   0.4478  0.205332 0.0311555
 0.407119  0.152793 0.0524878
 0.362346  0.246065 0.0817978
 0.375064  0.154705 0.0725863
  0.44506  0.205349 0.0932009
0.376351 0.143851 0.092132
0.422205 0.283544 0.202188
 0.36981 0.150987 0.131375
0.352977 0.162766 0.120361
0.253176 0.557326 0.106859
0.374739 0.260586 0.160768
0.221077 0.303769 0.178372
0.0238124  0.244033  0.152593
0.254015 0.563054  1.74891
0.279804 0.175062 0.143742
0.348392 0.159958  0.21456
0.168515 0.127653 0.217862
0.374218 0.127043 0.554925
 0.411578 0.0113595  0.375462
  0.410607 -0.0320868   0.344194
  0.475601 -0.0274412    0.21857
0.493805 -0.05212  0.22796
  0.484648 -0.0198225   0.210053
    0.32378 -0.00993125    0.285033
0.0829508 0.0401757  0.319402
0.0471423 0.0211639  0.274348
  0.0583107 -0.00346305    0.269397
0.0614021 0.0626754  0.214282
 0.128694 0.0596854  0.216759
 0.167861 0.0152945  0.240426
   0.184074 -0.00483628    0.299838
0.339621 0.011817 0.231967
 0.285923 0.0559419  0.201626
 0.31795 0.111405  0.30242
0.0901697 0.0851786  0.209702
  0.41511 0.0519612  0.216546
  0.414805 0.00541997   0.253719
 0.404015 0.0724015  0.194864
0.393893 0.103854 0.192695
0.395534 0.128644  0.21567
 0.39929 0.153599 0.199806
0.392208 0.177491 0.264283
0.404889 0.183151 0.251015
0.367391 0.203325 0.471179
0.390865 0.129745 0.269677
 0.389371 0.0876609  0.330676
 0.386016 0.0915861  0.371436
  0.44034 0.0768621  0.242256
 0.419626 0.0219715  0.240912
 0.38938 0.107279 0.295896
0.384094  0.12905 0.331957
 0.414618 0.0308836  0.225978
 0.415998 0.0895111  0.224189
 0.466737 -0.158582  0.180819
 0.0714403 -0.0111478 -0.0358488
 0.0367371 -0.0593813  0.0202617
 0.0440626 -0.0160917 -0.0308057
   0.068353 -0.00382684  -0.0359659
0.0410659 -0.072941 0.0265367
 0.0293145 -0.0666415 0.00638211
 0.0652675 -0.0301421 -0.0694706
-0.00502843   -0.189296  0.00274605
0.00617241  -0.125164 -0.0122965
-0.00735137   -0.159201  -0.0324688
 -0.0136162   -0.161601 -0.00256392
0.0149335 -0.181217  0.017137
 0.012023 -0.160268 0.0280793
-0.0121578 -0.0997496 -0.0156464
 0.0117549 -0.0935003  0.0193388
 0.0167987 -0.0800656  0.0207393
0.00847886  -0.100595  0.0181125
0.240424 -0.14905 0.282815
 0.227848 -0.164297  0.272413
  0.207731 -0.0859101   0.217986
 0.396297 -0.117694  0.194577
 0.499526 -0.103798  0.205025
 0.416128 -0.111252  0.319037
 0.453389 -0.432729  0.238807
 0.392683 -0.268116 0.0670299
 0.370506 -0.271734  0.098887
 0.217961 -0.224592   0.15011
0.0440748 -0.282179 0.0824103
0.0448287 -0.343094   0.11299
-0.000181379    -0.304074    0.0721998
 0.224633 -0.336659 0.0543523
0.0791149  -0.27915 0.0584309
0.0580644  -0.25213 0.0323147
 0.065132 -0.254642  0.035512
0.00828292  -0.215304 0.00793817
0.0199152 -0.262917 0.0312686
0.0650213 -0.295326 0.0708234
0.0297344 -0.346473   0.11639
-0.0588844   -0.45563   0.203738
-0.00101945   -0.281044   0.0519147
 0.187996 -0.352579 0.0257317
 0.274259 -0.423187  0.136315
  0.37851 -0.382505 0.0900244
 0.373451 -0.401944  -0.11987
   0.43839  -0.183148 -0.0202363
   0.46412  -0.231047 -0.0519171
   0.4825 -0.256974 -0.173147
  0.499573   -0.18791 -0.0209689
  0.452387  -0.154288 -0.0608265
  0.441196  -0.143215 -0.0481727
   0.4722 -0.208539 -0.188428
  0.498486  -0.124582 -0.0480932
 0.448375 -0.126573 -0.039943
  0.488931  -0.080046 -0.0643902
  0.493361 -0.0872053 -0.0754921
  0.474537 -0.0928175  -0.142381
  0.423823 -0.0722337 -0.0625237
  0.443399 -0.0626885 -0.0545221
  0.443117 -0.0797769  -0.248454
 0.442573 -0.143018 -0.179144
  0.442255  -0.116837 -0.0549293
  0.413737 -0.0838858  -0.169001
  0.349128 -0.0664866 -0.0553009
  0.378709  -0.132898 -0.0488552
 0.0608757 -0.0864369 -0.0834305
 0.0597513  -0.192902 -0.0529545
  0.069015  -0.195729 -0.0537586
 0.0259394  -0.143052 -0.0963879
   0.10645  -0.106347 -0.0734725
  0.150911 -0.0293154  -0.109705
  0.0677294 -0.00727692   -0.148967
  0.103375  0.0113618 -0.0838404
0.0544602 0.0159118 -0.142301
 0.0640704 -0.0984524 -0.0506237
 0.0889566 -0.0774005 -0.0269225
-0.0165151   -0.15673  -0.037198
 0.0402626  -0.182417 -0.0151618
-0.0297195 -0.0675637  -0.104671
 0.0598688  -0.101214 -0.0326911
  0.018604 -0.0571052  -0.157271
 0.00516942 -0.00496373   -0.159959
 0.0425833  -0.191248 -0.0486351
-0.0043355  -0.148404 -0.0673603
 0.0289303  -0.199508 -0.0272618
0.00235076  -0.220797 -0.0043206
  0.0244197   -0.229963 -0.00759792
-0.0039983  -0.243753  0.0148324
 0.0228577  -0.231055 -0.0041984
 0.0280183  -0.241989 0.00513683
 0.0449489  -0.190333 -0.0166419
-0.0222032   -0.29277   0.059468
-0.0378989  -0.303392   0.064725
0.00174631  -0.415923  0.0400816
-0.0101642  -0.511457  0.0228783
-0.194634 -0.729423  0.202782
 0.124734 -0.237085 -0.159631
 0.130199 -0.242205  -0.19019
 0.133589 -0.242205 -0.204886
 0.108523  -0.25787 -0.158317
 0.161924 -0.247209 -0.298767
0.0259084  -0.21551  -0.15767
 0.107099 -0.156552 -0.232649
0.0779649 -0.220172  -0.15721
0.0726739 -0.244812 -0.132201
  0.11224 -0.203825 -0.177396
 0.058375 -0.229622 -0.127129
0.0869854 -0.190649 -0.117424
0.0845114  -0.16705  -0.15494
0.0781198  -0.16445 -0.147442
 0.0337438  -0.187858 -0.0497082
 0.0720007  -0.201029 -0.0707835
0.0698166   -0.2005 -0.064243
0.0556373 -0.156122 -0.107373
  0.039014  -0.185477 -0.0547194
 0.0141903  -0.166327 -0.0612643
 0.0119973  -0.154869 -0.0726437
0.00871789  -0.145806 -0.0885433
0.0177893 -0.151119 -0.101703
0.0427896 -0.117669 -0.156849
0.0607417 -0.145435 -0.128196
 0.050057 -0.155336 -0.103041
  0.048263  -0.168579 -0.0842489
0.0645841  -0.12601 -0.163094
0.0845861 -0.188972 -0.113551
 0.074746 -0.158598 -0.137823
0.0892607 -0.182571 -0.139434
 0.087575 -0.163982  -0.17016
 0.102915 -0.157888 -0.141755
 0.0937131  -0.118045 -0.0923161
 0.0976824  -0.127339 -0.0906763
0.0602211  -0.15396 -0.115534
 0.0729357  -0.201265 -0.0727685
0.0914576 -0.139533 -0.116472
 0.0969507  -0.219793 -0.0967706
0.0988412 -0.211601 -0.107225
0.0991325 -0.209596  -0.09694
 0.103164 -0.207373 -0.135987
 0.092468 -0.230323 -0.103588
0.0918686 -0.228966 -0.108468
 0.47234 0.145995 -1.46336
  0.11056 -0.175477 -0.217889
0.0860568 -0.142114 -0.199382
 0.314855 -0.108037 -0.241913
0.0186123 0.0295462   -0.2117
  0.292778 -0.0509559 -0.0906041
  0.220361 0.00400221   -0.21443
 0.200122 0.0352214 -0.289284
0.0847446 0.0717435 -0.381409
  0.338492 -0.0334366  -0.262843
 0.156483 -0.246038 -0.109001
 0.206678 -0.348607 -0.142001
-0.349087 -0.287845 -0.165056
-0.387586 -0.357947 -0.158413
-0.367302 -0.349332 -0.131569
-0.190105 -0.488076 -0.139957
-0.239737 -0.888976 -0.282154
-0.107456 -0.295372 -0.236574
-0.104962 -0.347945 -0.203943
-0.0931766  -0.343155  -0.231316
-0.0998248  -0.381689  -0.227394
-0.105906 -0.462233 -0.248543
-0.128217 -0.449532  -0.20678
 -0.13847 -0.298791 -0.141937
-0.146959 -0.329776 -0.142767
 -0.243701  -0.459485 -0.0205232
 -0.212816    -0.3998 -0.0201168
-0.154617 -0.310467 -0.130788
-0.165106 -0.322035 -0.125438
-0.144207 -0.272429 -0.143504
 -0.199059  -0.383489 -0.0937938
-0.160444 -0.360598 -0.136211
-0.168849 -0.276801 -0.142083
-0.265946 -0.338876  -0.07841
-0.264915   -0.4543 0.0190662
 -0.232928  -0.312163 -0.0259404
-0.253173 -0.360753 -0.011156
 -0.201673   -0.22267 -0.0645748
 -0.207091  -0.243513 -0.0533287
 -0.21997 -0.260244  -0.04984
 -0.211788  -0.233793 -0.0626486
 -0.231396  -0.290717 -0.0383574
 -0.216604  -0.209845 -0.0837724
 -0.224847   -0.24386 -0.0651581
 -0.239537  -0.254659 -0.0693357
 -0.269791  -0.307851 -0.0581721
 -0.232959  -0.232822 -0.0801298
 -0.227703  -0.205411 -0.0966404
 -0.254359  -0.291804 -0.0559475
-0.315829 -0.276547 -0.128819
-0.319271 -0.204464 -0.202432
 -0.264228  -0.265669 -0.0819398
-0.267414 -0.227892 -0.115406
-0.267763 -0.199777 -0.139182
-0.302901 -0.174585 -0.207088
  -0.25481 -0.0859759  -0.232881
 -0.241259 -0.0771066  -0.224689
 -0.238666 -0.0558733  -0.242529
 -0.234472 -0.0912765  -0.202055
-0.261891 -0.159274   -0.1694
 -0.22836 -0.122909 -0.164167
 -0.24609 -0.149939 -0.159608
-0.240393 -0.163963 -0.141057
-0.250099 -0.192529 -0.127124
-0.223969 -0.182144 -0.110051
-0.226332 -0.165997  -0.12487
-0.216139  -0.15186 -0.126499
-0.205019 -0.165606 -0.105972
 -0.205989  -0.201356 -0.0819472
 -0.198377  -0.202692 -0.0766765
 -0.198795  -0.172481 -0.0974885
-0.222072 -0.103925 -0.175044
 -0.211796 -0.0960529  -0.171142
-0.207321 -0.113524 -0.150843
-0.205558 -0.130034 -0.135228
 -0.172853   -0.20664 -0.0578485
-0.167191 -0.190642   -0.0659
  -0.17493  -0.195988 -0.0669215
 -0.183478  -0.216585 -0.0574755
-0.178603 -0.223534 -0.049276
 -0.171655  -0.233413 -0.0377877
 -0.180829  -0.242151 -0.0376078
 -0.172194  -0.218424 -0.0489956
 -0.203653  -0.266218 -0.0356191
 -0.203991  -0.290699 -0.0200002
  -0.202285   -0.308945 -0.00714607
 -0.196819  -0.281548 -0.0212193
 -0.166149  -0.216121 -0.0467188
 -0.160971  -0.238914 -0.0276693
 -0.169828  -0.270694 -0.0118531
  -0.191719   -0.302815 -0.00431753
-0.152756 -0.217315 -0.038046
 -0.145094  -0.210052 -0.0388798
  -0.13665  -0.199367 -0.0411899
 -0.140824  -0.194381 -0.0471345
 -0.154431  -0.195849 -0.0542905
 -0.148718  -0.201245 -0.0470242
 -0.162723  -0.199388 -0.0567007
 -0.150126   -0.17424 -0.0677641
 -0.145507  -0.151923 -0.0826059
 -0.138642  -0.158031 -0.0736149
 -0.143303  -0.178637 -0.0604351
 -0.148523  -0.133676 -0.0993899
-0.170341 -0.121173  -0.12134
-0.164345 -0.140094 -0.102898
 -0.204963 -0.0346262  -0.223369
 -0.17884  -0.10168 -0.141139
 -0.198128 -0.0177864  -0.231374
 -0.158477  -0.164801 -0.0799423
 -0.181685  -0.178953 -0.0832111
 -0.182628  -0.200887 -0.0682282
 -0.173324  -0.155501 -0.0957904
-0.180088 -0.148811 -0.104804
-0.179652 -0.134935 -0.115607
 -0.185921  -0.167782 -0.0934708
  -0.18957  -0.203584 -0.0706654
 -0.211937  -0.282716 -0.0307156
 -0.219986    -0.2958 -0.0276632
-0.192974 -0.196695 -0.077739
-0.196708 -0.127433 -0.130678
 -0.217135 -0.0424981  -0.229874
-0.187343 -0.133722 -0.120789
-0.188828  -0.15047 -0.108697
-0.187321 -0.115445 -0.134914
 -0.189504 -0.0950865  -0.151687
 -0.202329 -0.0528301  -0.202471
 -0.193588 -0.0759306  -0.171827
 -0.206886 -0.0769089   -0.18445
-0.198744 0.0313406 -0.281555
-0.188413  0.066497 -0.325417
-0.204617 0.0526431 -0.319645
-0.215358  0.110622 -0.438261
-0.189924  0.111966 -0.400191
-0.217102 0.0306772 -0.300679
-0.225208 0.0957751 -0.423798
-0.232561  0.119544 -0.489414
-0.221477  0.151915 -0.541199
-0.141545  0.353622  -0.85886
-0.0165703   0.489257   -1.09612
-0.164346  0.129577 -0.402618
-0.144816  0.165535 -0.442658
-0.176682  0.188208 -0.537246
-0.158411   0.18525 -0.496349
   -0.10317 -0.00489236   -0.369626
-0.285484  0.986159  -2.65825
-0.285306 0.0184734 -0.402771
  -0.311404 -0.00789624    -0.42552
-0.278108 0.0745155 -0.474427
 -0.25989 0.0472546 -0.388466
 -0.231584 -0.0244951  -0.264819
 -0.250083 -0.0462887  -0.266481
 -0.46219 -0.287641 -0.411351
 -0.36585 -0.229165 -0.262524
-0.406153 -0.215013 -0.372714
-0.310877 -0.120419 -0.285238
-0.282814 -0.111864 -0.242554
-0.349765  -0.13668 -0.346472
 -0.299941 -0.0697405  -0.324336
  -0.35227 -0.0914179  -0.410769
-0.415124 -0.157437 -0.473591
-0.384292  -0.03881 -0.556173
-0.399066 -0.169203 -0.418226
 -0.42862 -0.248079 -0.382457
-0.419578 -0.256275 -0.348444
-0.426384  -0.30445 -0.301709
-0.401237 -0.238183  -0.32862
-0.445114 -0.290761 -0.364066
-0.516889  -0.47482 -0.301354
-0.554585 -0.522837 -0.332096
-0.432683 -0.319964 -0.227037
-0.431079 -0.241661 -0.137306
-0.552028 -0.606177 -0.226763
-0.410209 0.0159909  -0.14889
-0.408504 0.0131954 -0.132167
-0.470444 0.0156884 -0.122993
 -0.572792 0.00966851 -0.0738594
 -0.469575 0.00831313 -0.0792808
 -0.478231 0.00778447 -0.0743465
 -0.439453  0.0066917 -0.0891076
 -0.432753 0.00749363 -0.0953143
-0.413732 0.0100726 -0.113676
-0.421328 0.0118754 -0.121318
-0.415686  0.011495 -0.121905
 -0.452453 0.00903277 -0.0933893
-0.488303 0.0134768 -0.100788
 -0.467726  0.0109938 -0.0938293
-0.494517 0.0348861 -0.258113
-0.470795 0.0471471 -0.897383
-0.374408 0.0579753 -0.443663
-0.356822 0.0517687 -0.397321
-0.370241 0.0103618 -0.587944
 -0.34991 0.0468819 -0.358664
 -0.44344 0.0264184 -0.201837
-0.441827 0.0173057 -0.144835
-0.432153  0.014823 -0.134248
-0.436716 0.0162381 -0.141909
-0.392348 0.0235234  -0.19535
-0.410374 0.0199849 -0.173261
 -0.40186 0.0111772  -0.12062
-0.398022 0.0146143 -0.140748
 -0.37646 0.0162875 -0.150731
-0.391886 0.0197435 -0.170813
-0.363035 0.0302963  -0.24604
-0.378246 0.0267893 -0.215219
-0.317824  0.053629 -0.409855
-0.314221 0.0449599 -0.341557
-0.351975  0.038515 -0.296424
 -0.326037 -0.0469096  -0.408419
 -0.343416 -0.0496411  -0.444267
 -0.36632 -0.157645  -0.35709
-0.357531 -0.173554 -0.315748
 -0.306153 -0.0105488  -0.410783
 -0.29465 0.0344623 -0.442836
 -0.322706 -0.0917527  -0.345022
-0.311781 -0.119735 -0.287802
-0.305152  -0.12173  -0.27287
 -0.298343 -0.0780925  -0.311208
 -0.274653 -0.0267881  -0.326576
 -0.271922 -0.0474383  -0.297713
 -0.275786 -0.0804581  -0.257499
 -0.28297 -0.110358 -0.244589
-0.332736 -0.127103 -0.321833
 -0.300151 -0.0387856   -0.36247
 -0.306513 -0.0689294   -0.33875
-0.313127 -0.103856 -0.309538
 -0.278986 -0.0226792  -0.339398
-0.272568 0.0358532 -0.398799
-0.333945  0.033618 -0.258772
-0.314181 0.0370566 -0.278975
 -0.32213  0.018958 -0.226753
-0.261597 -0.026638 -0.303162
   -0.26249 -0.00129972   -0.334655
-0.314757 0.0260093 -0.196359
-0.284461 0.0341517 -0.242999
-0.272315  0.047331 -0.343523
-0.332382 0.0267193 -0.209908
-0.330067 0.0250229 -0.199153
-0.370681 0.0129195 -0.131948
 -0.40533 0.0077644 -0.102246
 -0.412551 0.00633301  -0.094144
-0.367646 0.0111422 -0.121481
 -0.398521 0.00596854 -0.0946414
 -0.365791 0.00715524  -0.101669
-0.341192 0.0175422 -0.154441
-0.358542 0.0109275 -0.120045
 -0.372401 0.00763526  -0.103768
 -0.371317 0.00456606 -0.0897954
 -0.359595 0.00599422 -0.0951554
-0.345628 0.0101939 -0.112433
 -0.323437 0.00937144  -0.124183
-0.276637 0.0295233 -0.229524
-0.240691 0.0365051 -0.297773
 -0.299184 0.00925609  -0.150205
 -0.281682 0.00953808  -0.187532
 -0.314023 -0.0816252  -0.148087
-0.329878 -0.110966 -0.104145
 -0.319586 -0.0959082  -0.133559
-0.326839 -0.085815 -0.110547
 -0.326974 -0.0689662  -0.106662
 -0.319245 -0.0460337  -0.117526
  -0.32394 -0.0808251  -0.113316
-0.233939 0.0426312 -0.336383
  -0.258092 -0.00909352   -0.274717
 -0.24799 0.0370554 -0.354781
 -0.263819 -0.0296175   -0.27563
-0.293183 -0.104558 -0.211938
  -0.30742 -0.0929837  -0.170819
-0.312966 -0.102615 -0.153202
 -0.310394 -0.0555702  -0.147427
 -0.312485 -0.0813218  -0.152678
 -0.312535 -0.0675426  -0.148584
 -0.319906 -0.0935917  -0.132114
-0.286503 -0.133197 -0.224989
-0.301959 -0.182714 -0.196441
-0.312053 -0.197001 -0.197824
-0.314481 -0.184912 -0.216665
-0.313339 -0.150824 -0.192197
-0.403136 -0.284767 -0.273439
-0.314308 -0.189014 -0.167872
-0.329183 -0.139871 -0.109742
 -0.336515  -0.125499 -0.0790597
-0.318962 -0.222487 -0.181692
-0.329511 -0.248396 -0.172732
 -0.40673 -0.332869 -0.223343
-0.364873 -0.266046 -0.216556
 -0.35336 -0.256943 -0.205431
-0.341715  -0.22744 -0.217229
-0.131345 -0.141657 -0.082543
  -0.13889  -0.130226 -0.0963939
-0.143329 -0.117202 -0.109921
-0.157108 -0.107475 -0.125232
-0.136773 -0.113923  -0.10881
-0.319168 -0.154073 -0.261789
-0.329297 -0.157423 -0.277134
-0.339377 -0.164592 -0.288331
-0.341534 -0.183749 -0.269283
-0.351559 -0.193372 -0.277729
-0.364496 -0.198108 -0.299195
-0.385309 -0.220292 -0.316041
-0.395644 -0.237307 -0.316629
-0.366773  -0.22308 -0.272434
-0.380021 -0.229396 -0.292505
 -0.193927 -0.0666732  -0.180967
  -0.18116 -0.0873316  -0.153502
-0.169851  -0.10516 -0.133849
-0.172295 -0.089961 -0.147015
 -0.177914 -0.0745958  -0.161659
 -0.193103 0.00296558  -0.245359
-0.186897 0.0345443 -0.275494
 -0.17554 0.0627006 -0.307344
 -0.194912 -0.0405262  -0.206069
 -0.187652 -0.0569819  -0.183368
 -0.182001 0.00780481  -0.236969
 -0.166462 -0.0909056    -0.1434
 -0.162022 -0.0890294  -0.157866
 -0.171846 -0.0538338  -0.174308
 -0.182397 -0.0253109  -0.206853
  -0.170443 -0.00113851   -0.216348
 -0.152084 -0.0914149  -0.135357
 -0.160328 -0.0901698  -0.140671
 -0.145177 -0.0836927  -0.137587
 -0.148127 -0.0676597  -0.151466
   -0.153734 -0.000556719    -0.206907
 -0.142333 -0.0395751  -0.169729
 -0.131153 -0.0790583  -0.133781
  -0.14395 -0.0570292  -0.157564
-0.145832 0.0466477 -0.264078
-0.157576 0.0561586 -0.281843
 -0.153422 -0.0762292  -0.147749
 -0.157479 -0.0625481  -0.160459
-0.164295 0.0132135 -0.229815
-0.164099 0.0389554 -0.262691
-0.166294 0.0624979 -0.298016
-0.165009 0.0921897 -0.342946
-0.00464634   -0.256278   -0.376738
 0.48185 0.077423 -1.44578
0.0343124 -0.146756 -0.512924
0.231741 0.359818 -1.20919
 0.16713 0.449726 -1.21529
-0.0889307 -0.0560542  -0.352074
-0.0325003 0.00039502  -0.518095
-0.0434603  -0.226818  -0.307575
 -0.146919  -0.225691 -0.0288359
-0.141749  -0.22749 -0.024666
-0.139762 -0.238534 -0.015691
-0.156574 -0.260319 -0.010373
  -0.167098   -0.282659 -0.00195757
 -0.128005  -0.213158 -0.0268828
  -0.110151   -0.235839 -0.00186814
-0.0994826  -0.228997 -0.0119348
  -0.103921   -0.232227 -0.00126013
 -0.0997783   -0.220779 -0.00707788
 -0.107224  -0.231234 -0.0036905
 -0.111193  -0.244858 0.00379256
 -0.114959  -0.278255 0.00539424
-0.135888 -0.276194 0.0120463
 -0.127541  -0.238109 -0.0087484
-0.116841 -0.222508 -0.014169
  -0.10912  -0.215077 -0.0156586
 -0.129957   -0.19958 -0.0372944
 -0.126711  -0.197079 -0.0369943
-0.0969055  -0.163706 -0.0462331
-0.119001 -0.194677 -0.034436
-0.0987452  -0.200249 -0.0204955
-0.0926174  -0.196555 -0.0201755
-0.0823835  -0.197714 -0.0144073
-0.072023 -0.189755 -0.015974
-0.0759468  -0.182715 -0.0218867
-0.0558327  -0.149363 -0.0434407
-0.0598187  -0.149496 -0.0436409
-0.0583187  -0.170951 -0.0262952
-0.0715663  -0.166269 -0.0319045
-0.0784818   -0.15989 -0.0391508
 0.210745 0.0646032 -0.686592
 0.174212   0.13224 -0.648099
  0.21662   0.17414 -0.827202
 -0.126962  -0.203586 -0.0465727
 -0.103116  -0.172036 -0.0432608
 -0.121496  -0.165785 -0.0581645
0.0481859   0.41805 -0.923362
 -0.123781  -0.125687 -0.0915079
-0.129317  -0.11592  -0.10272
-0.122788 -0.107026 -0.106428
 -0.108195  -0.116261 -0.0909051
 -0.108662  -0.120786 -0.0873324
 -0.100885  -0.114271 -0.0887465
 -0.112136  -0.135771 -0.0769551
 -0.116636  -0.140083 -0.0759162
 -0.118318  -0.131673 -0.0835757
-0.0960808  -0.100639 -0.0987617
-0.0788775 -0.0985853 -0.0912684
-0.0511075 -0.0923862 -0.0930087
-0.0501579  -0.100562 -0.0860478
-0.0607295  -0.100872  -0.086927
 -0.069849  -0.112995 -0.0919068
-0.0549807   -0.11026 -0.0782732
-0.0442957  -0.110308 -0.0764985
-0.0497946  -0.172746 -0.0861785
-0.0608362  -0.132303 -0.0583211
-0.0645086   -0.14541  -0.047241
-0.0721707  -0.135858 -0.0566874
 -0.105791  -0.146694 -0.0647652
 -0.103098  -0.156621 -0.0553857
-0.0761277  -0.133221 -0.0610215
-0.0719464  -0.111108 -0.0790108
-0.0795743  -0.117325  -0.076333
-0.0891334  -0.127697 -0.0721787
-0.0891868  -0.140961 -0.0613454
-0.0746399  -0.122082 -0.0699042
-0.0584191  -0.112787 -0.0763778
-0.0999865 -0.0969474  -0.102705
 -0.121557 -0.0930902  -0.117133
  -0.10773 -0.0859594  -0.115556
-0.0935851 -0.0701141  -0.121126
 -0.103918 -0.0752193  -0.122504
 -0.115817 -0.0784957  -0.125961
-0.0971277 -0.0834062  -0.112221
-0.0837733 -0.0670859  -0.118101
-0.0714992  -0.086797 -0.0996984
-0.0631002  -0.114269  -0.106252
-0.0486835 -0.0650927  -0.116009
-0.0529856 -0.0825348  -0.100989
-0.0682729 -0.0442511  -0.136949
-0.0700597 -0.0569901  -0.125577
-0.0329041 -0.0533915  -0.125249
-0.0581297 -0.0529642  -0.127852
-0.0415598 -0.0424983  -0.136093
-0.0314783 -0.0286525  -0.148247
-0.0215635  0.0124051  -0.185255
-0.0734715 -0.0354504   -0.14523
-0.0534825 -0.0308794  -0.147832
-0.0620181 -0.0180165  -0.160109
-0.0831738 -0.0315319   -0.14927
-0.0813222 -0.0423866  -0.139656
-0.0987393 -0.0607096  -0.131101
-0.0893471 -0.0483165  -0.135883
 -0.104514 -0.0461368  -0.145441
 -0.118661 -0.0620366  -0.140555
 -0.124047 -0.0815102  -0.127774
-0.113024 -0.063595 -0.136288
 -0.118505 -0.0113435  -0.178053
-0.0990934 -0.0180206  -0.163539
-0.0870349  0.0333763  -0.216998
-0.104032 0.0160753 -0.203855
 -0.137826 -0.0462327  -0.185074
 -0.143211 0.00690995  -0.211655
  -0.133257 -0.00328666   -0.194029
-0.0647064  0.0681077  -0.249222
-0.0694274  0.0991455  -0.291086
-0.0909956  0.0494974  -0.239124
-0.107206 0.0410666 -0.236739
-0.0393207   0.137381   -0.34831
-0.111051 0.0766703 -0.283893
0.00335088    0.26374  -0.571299
-0.122747 0.0837334 -0.388718
-0.0739962   0.290231  -0.649089
0.00725352   0.317547  -0.688222
-0.118428  0.100212 -0.418988
-0.136106 0.0959514 -0.321813
-0.0218602   0.199774  -0.445531
-0.122998  0.153604 -0.399033
0.00162932   0.120756  -0.338487
-0.0191613   0.116806  -0.324289
0.0277184  0.133171 -0.368614
0.0552835  0.135853 -0.411133
0.0294821  0.116613 -0.344373
0.055754 0.152307 -0.44093
 0.125109  0.138591 -0.543333
0.0791709  0.246737 -0.656184
0.0540352   0.17676 -0.482431
0.00990807  0.0660212  -0.260539
-0.0487828  0.0989155  -0.290737
-0.024634 0.0884273 -0.281473
-0.0367929  0.0708656   -0.25294
-0.0527489  0.0597366  -0.237002
-0.0163823  0.0709486  -0.258218
-0.0504919  0.0456379   -0.21999
-0.0672769  0.0413413  -0.216965
-0.0597543  0.0460532  -0.219734
 -0.0731272 -0.00162901   -0.174625
-0.0317591   0.032874  -0.205657
 -0.0449601 0.000699783   -0.175681
-0.0654953 0.00955767  -0.184058
-0.0276247 -0.0688816  -0.114946
-0.0163846 -0.0835655  -0.114236
-0.0207787 -0.0773768  -0.114922
 0.0063738 -0.0739373  -0.138044
-0.00622948  -0.0577797   -0.137112
-0.0196342 -0.0677967  -0.121496
-0.0234912 -0.0485488  -0.129906
-0.0139296 -0.0346492  -0.143969
 0.0105901 -0.0366734  -0.161636
 -0.0121026 -0.00983077   -0.164756
0.00846084  0.0431741   -0.22571
0.0325168 0.0377637 -0.243808
0.0353685 0.0110715 -0.226937
 0.0419292 -0.0230145  -0.210689
 0.0211748 -0.0455503   -0.16551
0.0242698  -0.00715 -0.191072
0.0658372 0.0216922 -0.298336
  0.0743271 -0.00100583   -0.297092
  0.10299  0.104612 -0.451105
 0.107996 0.0690459 -0.431376
 0.108091 0.0356186 -0.403007
0.0850278 0.0261706 -0.343416
0.0877991 0.0641412 -0.381496
-0.0311091 -0.0936314 -0.0967037
-0.0247399 -0.0961884 -0.0996373
 0.0545109 -0.0449055  -0.217686
 0.0538754 -0.0120973   -0.24442
 0.055856 -0.105778 -0.172984
0.0381337 -0.160801 -0.157301
 0.0838254 -0.0679146  -0.260114
 0.0835895 -0.0877208  -0.242657
 0.0852422 -0.0486865  -0.279425
0.0787553 -0.018688  -0.29145
 0.0649592 -0.0786909  -0.210985
 0.0731483 -0.0730413  -0.233229
 0.0581913 -0.0913781  -0.188799
0.0354236 -0.135056 -0.151481
 0.0601871 -0.0585113  -0.218094
 0.0288691 -0.0852459  -0.150678
 0.0371811 -0.0700209   -0.16745
 0.0175905 -0.0931507  -0.136086
0.0104676 -0.103576 -0.123298
0.0108597 -0.132264 -0.121918
-0.0085326 -0.0996423  -0.110177
-0.0102556   -0.10196  -0.109716
-0.0133602  -0.109797 -0.0990152
-0.00164829    -0.11402   -0.106053
-0.0105275   -0.20348  -0.108753
 -0.018734  -0.174093 -0.0950406
-0.0183184  -0.176229  -0.091852
-0.00991067   -0.144895   -0.099001
-0.0235034  -0.115094 -0.0871696
-0.0266313  -0.171804 -0.0959119
-0.0291206  -0.120608 -0.0797744
-0.0418366  -0.102166   -0.08319
-0.0237291  -0.160808 -0.0860387
-0.0253571  -0.163761 -0.0839432
 -0.021939   -0.13703 -0.0659355
-0.0231341  -0.148768  -0.087002
-0.0100417  -0.136933 -0.0753127
9.42523e-05   -0.150918   -0.067861
0.00736032  -0.161926 -0.0616655
-0.0129443   -0.11848  -0.093287
-0.0182261  -0.124143 -0.0827075
-0.00346182   -0.173518   -0.109273
0.000910928    -0.16327  -0.0553714
-0.0141723  -0.149674 -0.0584849
-0.0179546  -0.157367  -0.046794
-0.00604567   -0.167102  -0.0454975
-0.0187646  -0.214355 -0.0885798
0.00188068  -0.176504 -0.0417978
-0.0334794  -0.148867 -0.0442403
-0.0344195  -0.180527 -0.0671877
-0.0267663  -0.203914 -0.0807418
-0.0478272  -0.153662 -0.0397541
-0.0379398  -0.150287 -0.0574838
-0.0482673  -0.135193 -0.0546651
-0.0398344  -0.123812 -0.0646257
-0.0229924  -0.201529 -0.0857309
-0.0355087   -0.14199 -0.0830278
-0.0388112  -0.125175 -0.0784602
-0.0178488   -0.18962 -0.0920258
-0.0130752  -0.196347  -0.096068
-0.00623452   -0.192613   -0.106949
-0.00788099   -0.195567   -0.103772
0.00589525  -0.213581  -0.122615
0.0610801 -0.152111 -0.183198
   0.10068 -0.0960858  -0.272974
0.0875895 -0.098668 -0.242367
 0.0948571 -0.0808877  -0.273042
 0.0996747 -0.0609287  -0.301562
0.0442898  -0.15517 -0.164925
0.0787995 -0.105753 -0.218472
0.0648379 -0.130681  -0.18315
0.0530233 -0.147385  -0.17201
-0.0342778  -0.210523 -0.0703638
-0.0441228  -0.174056 -0.0230274
-0.0379661  -0.191643 -0.0610842
 -0.029121   -0.16966 -0.0288757
-0.0386444  -0.164389 -0.0300919
0.00420369  -0.213078  -0.131199
0.00989393  -0.212648  -0.129679
0.00906626   -0.21086  -0.134067
0.0474602 -0.183428  -0.17732
-0.0485667  -0.196266 -0.0432977
-0.0437563  -0.219031 -0.0624494
0.0778461 -0.139464 -0.203806
 0.108508 -0.131108 -0.261683
  0.114734 -0.0787302  -0.321488
 0.102219 -0.159077 -0.243246
0.0635061 -0.170349 -0.194945
 0.094563 -0.221106 -0.261648
 0.435859 -0.375582  -1.06058
 0.337916  -0.26334 -0.826512
  0.18937 -0.183639 -0.439704
 0.144615 -0.157214 -0.331701
 0.137995  -0.13813 -0.328937
 0.133704 -0.116838 -0.336423
  0.127934 -0.0991987  -0.336452
 0.153466 -0.125518  -0.38127
 0.212151 -0.180345 -0.506817
  0.18038 -0.145817 -0.439967
  0.115262 -0.0576002  -0.340994
 0.132741  0.077836 -0.497095
 0.152579 0.0475945  -0.51921
  0.155358 -0.0777545  -0.424344
 0.174043 -0.049187 -0.496894
 0.214864 -0.112466 -0.560947
 0.147747 -0.106098 -0.381825
  0.197583 -0.0333581   -0.57453
   0.261127 0.000233445   -0.776106
  0.13438 -0.157627 -0.524593
  0.175377 -0.0160207  -0.526918
  0.204679 -0.0268036  -0.599386
  0.266066 -0.0993957  -0.716685
 0.51332 -0.25424 -1.34093
 0.369506 -0.230381 -0.936421
 0.526339 -0.380283  -1.32438
0.0571469 -0.296805 -0.257932
-0.0293414  -0.413999   -0.17334
-0.0818868  -0.410619  -0.190667
-0.0102077  -0.400823   -0.34251
-0.0345408  -0.342245  -0.263725
-0.0927838   -0.30485  -0.206348
 -0.195081   -0.34917 0.00828072
-0.0922703  -0.299858 -0.0774988
-0.0997917   -0.32483 -0.0894063
-0.138628 -0.377107 0.0810981
-0.124477 -0.286362 0.0245587
-0.130689 -0.303393 0.0334857
-0.146496 -0.320288 0.0369898
-0.146114  -0.33741 0.0496394
-0.137999 -0.300427 0.0274347
 -0.163028   -0.32045 -0.0050801
-0.191354 -0.346835 0.0268258
-0.290454 -0.558054  0.114994
-0.381311 -0.831129  0.263035
-0.0743669  -0.324239  -0.114947
-0.113549 -0.412047 0.0686107
-0.0564379  -0.336611 -0.0349614
-0.0429732  -0.309952 -0.0628307
-0.0141044  -0.332305 -0.0757417
-0.0340323  -0.328655 -0.0947665
-0.0326268  -0.323772 -0.0734809
-0.00649181   -0.179469  -0.0324248
0.00161611  -0.186331 -0.0314739
-0.00221435   -0.199547  -0.0202208
-0.00353556   -0.192966  -0.0242739
-0.0174962  -0.189473 -0.0192517
-0.0113349  -0.200968 -0.0137426
 -0.0240398   -0.202706 -0.00764297
-0.0239843  -0.179364 -0.0233666
-0.0163783  -0.175865 -0.0302484
-0.0345105  -0.179417 -0.0196035
-0.0503078    -0.1803 -0.0188517
  -0.0519323    -0.206326 -0.000950428
-0.0544809   -0.21939  0.0081193
 -0.0429329   -0.204375 -0.00230184
-0.0322599  -0.204571 -0.0047943
-0.0409117  -0.220394 0.00730743
-0.0468396  -0.217017 0.00659965
 -0.0405931   -0.223051 -0.00839622
-0.0398758   -0.21137 0.00128714
  -0.0259624    -0.214293 -0.000721726
-0.0341025  -0.223736 0.00703764
-0.0239101  -0.221252 0.00275802
 -0.0130187   -0.214679 -0.00349929
-0.0202048   -0.21466 -0.0019549
-0.00887905   -0.209584  -0.0084373
-0.00472174   -0.207775  -0.0123045
-0.00873279   -0.212386 -0.00608757
-0.00900073   -0.218087 -0.00235759
 -0.0154116   -0.226881 -0.00882337
-0.0261243  -0.235166  0.0135664
-0.0132831  -0.227093 0.00417912
 -0.0102127   -0.230767 -0.00707425
  -0.011818   -0.231856 -0.00823027
-0.0411401  -0.272522  0.0413744
-0.0290919  -0.254401   0.029596
-0.0504451  -0.270903  0.0400295
-0.0466785  -0.259214  0.0318775
-0.0337057  -0.244188  0.0221063
-0.0534472  -0.257423  0.0309219
-0.0665539   -0.27811  0.0449713
-0.0699459  -0.297103  0.0346741
-0.0383199  -0.234532  0.0162245
-0.0334536   -0.23627  0.0165287
-0.0420976  -0.243955  0.0219919
-0.0600803  -0.245253  0.0243299
-0.0678941  -0.249692  0.0252536
-0.0809721   -0.28405  0.0429156
-0.0901152  -0.308428  0.0550802
-0.101017 -0.321281 0.0587943
-0.080172 -0.268767  0.033315
-0.0600063  -0.229579  0.0141563
-0.0681934  -0.244993  0.0220751
-0.0775571  -0.288257  0.0471667
-0.0634861  -0.265791  0.0367149
-0.0508714   -0.24717  0.0244486
-0.0564881  -0.248677  0.0258062
-0.049573 -0.234525 0.0168913
-0.0478014  -0.226542  0.0123539
-0.0381455  -0.225485 0.00841138
 -0.0289924   -0.228139 -0.00200481
-0.0280167  -0.225284 0.00658756
-0.0446818  -0.228535  0.0131185
-0.0694871  -0.299954  0.0592071
-0.0779098  -0.318828  0.0688101
-0.0566308  -0.287515  0.0511164
-0.0629721   -0.30473    0.06247
-0.0999824  -0.370325  0.0944623
-0.0159814  -0.332261 -0.0163723
-0.225563 -0.746573  0.240315
  -0.072284   -0.345014 -0.00526195
-0.120179 -0.401654  0.105731
-0.136608 -0.450931  0.134175
-0.0722683  -0.334622  0.0369881
-0.0758022  -0.323298  0.0408384
-0.102172 -0.344535 0.0735024
-0.102152 -0.338736  0.069602
  -0.064416    -0.19948 -0.00699666
-0.0978274  -0.236185  0.0043669
 -0.0947634   -0.223146 -0.00273503
-0.0899825   -0.22657 0.00177637
-0.102497 -0.252932 0.0133076
 -0.0726554   -0.210858 -0.00189187
-0.0860263  -0.231331 0.00706644
-0.0612574    -0.2197 0.00760148
-0.0753886  -0.250523  0.0231694
-0.0766949  -0.241034  0.0167217
-0.0928478  -0.247342   0.014377
-0.0907546  -0.255578  0.0206575
-0.100362 -0.281519 0.0329659
-0.105517 -0.274455 0.0258447
-0.0854577  -0.257359  0.0242226
-0.0916036  -0.277354  0.0344536
-0.0916092  -0.282372  0.0375802
-0.104052 -0.305546 0.0471069
-0.0990159   -0.29991  0.0165232
-0.0575409  -0.302377 -0.0472919
-0.120077 -0.308154 0.0415682
  -0.25846  -0.240021 -0.0967822
-0.245371 -0.216517 -0.103704
-0.268209 -0.230727 -0.113848
-0.277498  -0.23532 -0.119902
-0.278119 -0.243062 -0.113959
-0.275008 -0.247065 -0.107388
-0.288283 -0.269575 -0.103025
 -0.283434  -0.278019 -0.0911653
-0.230233 -0.216714 -0.090122
 -0.219172   -0.19716 -0.0953562
 -0.235931  -0.215371 -0.0962817
 -0.25098 -0.234832 -0.094288
-0.239025 -0.196593 -0.113571
-0.227025 -0.183025 -0.112345
  -0.23929   -0.14851 -0.0480234
-0.265692 -0.218794 -0.121557
-0.229877 -0.174279 -0.121957
-0.273327 -0.216101 -0.131837
-0.254352 -0.176086 -0.145775
-0.247952 -0.125677 -0.184746
-0.241924 -0.126165 -0.177113
 -0.235138 -0.0929834  -0.201204
-0.227448 -0.104384 -0.180995
 -0.223452 -0.0892025  -0.191004
 -0.220148 -0.0991104  -0.177529
-0.233496 -0.121846  -0.17132
-0.221487 -0.116511 -0.162607
-0.217622 -0.115119 -0.159608
 -0.215448 -0.0929043  -0.178312
 -0.211064 -0.0956108  -0.170822
  -0.19921 -0.0902027  -0.164345
-0.209368 -0.101639 -0.163589
-0.225137 -0.138466 -0.146583
-0.225867  -0.14658 -0.140623
-0.232837  -0.14697 -0.147654
-0.229278 -0.136731 -0.152921
-0.229909 -0.161243 -0.132433
-0.239006 -0.174197 -0.131382
-0.218086 -0.128205 -0.148406
 -0.210262  -0.129007 -0.0986533
-0.231848 -0.141602 -0.049037
 -0.214001  -0.117831 -0.0832774
-0.212033 -0.107689 -0.093468
 -0.214947 -0.0962021 -0.0839163
 -0.223235  -0.107129 -0.0680019
-0.196404 -0.106639 -0.147173
 -0.193135 -0.0921098   -0.14604
 -0.189224 -0.0799881  -0.164029
-0.203233 -0.106372 -0.153559
-0.210631 -0.128919 -0.140745
-0.210155 -0.140229 -0.130865
-0.212909 -0.155298 -0.120627
-0.219766 -0.166068 -0.118457
 -0.244453  -0.140135 -0.0435906
  -0.24889  -0.138121 -0.0451755
 -0.224486  -0.216486 -0.0853578
  -0.21182  -0.178316 -0.0831347
-0.208852 -0.182696 -0.096891
 -0.227305  -0.140185 -0.0429737
 -0.214556   -0.16259 -0.0839174
 -0.216312 -0.0914109 -0.0720252
 -0.217205 -0.0932203 -0.0655769
 -0.218742  -0.143059 -0.0634987
 -0.213528  -0.107062 -0.0796928
-0.214444 -0.100127 -0.074085
-0.200708 -0.105302 -0.125246
 -0.203387 -0.0908382  -0.116051
 -0.194233  -0.174097 -0.0938306
  -0.19969  -0.180275 -0.0929986
 -0.184437  -0.196308 -0.0728217
 -0.214075  -0.138605 -0.0238478
  -0.21297  -0.139258 -0.0260957
-0.206174 -0.167767 -0.105252
 -0.216858  -0.177582 -0.0628834
  -0.21124  -0.177476 -0.0856916
-0.205888 -0.206411 -0.078366
 -0.223333   -0.17939 -0.0415056
 -0.262585  -0.294987 -0.0606908
 -0.253566  -0.268223 -0.0715551
 -0.279842  -0.283942 -0.0829959
 -0.296262  -0.311388 -0.0786308
 -0.247447   -0.28536 -0.0546933
 -0.256377  -0.293636 -0.0563954
 -0.219246  -0.276486 -0.0392437
 -0.226342  -0.296671 -0.0312856
 -0.205702  -0.260011 -0.0413446
 -0.221097  -0.245451 -0.0610285
 -0.228392   -0.24738 -0.0655604
  -0.21812   -0.20609 -0.0535476
 -0.221778  -0.189887 -0.0431568
 -0.199449  -0.226423 -0.0608646
 -0.157866  -0.182069 -0.0669707
 -0.148225  -0.152961 -0.0834288
 -0.157211  -0.142232 -0.0972559
-0.161247 -0.137166 -0.103536
-0.184963 -0.133829 -0.119427
 -0.175033  -0.160749 -0.0928367
 -0.158995  -0.155456 -0.0878081
 -0.183891  -0.159434 -0.0707161
-0.179269 -0.204107 -0.063984
 -0.176464  -0.234148 -0.0404194
 -0.161751  -0.204571 -0.0525405
 -0.164253  -0.231476 -0.0347722
 -0.168287  -0.227981 -0.0396844
 -0.163142  -0.218368 -0.0434193
