-0.516062 -0.356736 -0.454117
-0.573828 -0.386778 -0.561052
-0.576607  -0.43088 -0.509652
 -0.52995 -0.403016 -0.427374
 -0.58634 -0.485397 -0.461967
-0.824773 -0.484561  -1.07371
 -0.95238 -0.748676  -1.04739
-0.628429 -0.425228 -0.648712
-0.978638 -0.786792  -1.06615
-0.929403  -0.70426  -1.04885
  -0.9759 -0.865403 -0.957245
-0.940437  -1.14648  -0.50234
-0.579156 -0.549306 -0.358774
-0.524294 -0.450088 -0.350536
-0.493368  -0.40222 -0.336264
-0.477706 -0.388284 -0.316218
-0.508185 -0.435104 -0.329528
-0.572688 -0.581713  -0.30299
-0.516889  -0.47482 -0.301354
-0.554585 -0.522837 -0.332096
-0.453109 -0.374123 -0.275765
-0.464118 -0.389124 -0.283361
-0.418238 -0.304597 -0.282255
-0.436824 -0.339465 -0.281331
-0.430356 -0.341219 -0.263982
-0.439135 -0.375562 -0.242031
-0.435755   -0.3574 -0.256455
-0.449175 -0.380896 -0.258826
-0.494681 -0.444397 -0.286545
-0.474384 -0.431194 -0.255663
 -0.48057  -0.44109 -0.257582
-0.506802  -0.50853 -0.237425
-0.519568  -0.51469 -0.259374
-0.464959 -0.426902 -0.239292
-0.449806 -0.410413 -0.224617
-0.452589 -0.405796 -0.235887
-0.466706 -0.456797 -0.208664
-0.484034 -0.481416   -0.2194
-0.537881 -0.597309 -0.205041
-0.583917 -0.646338 -0.252688
-0.785265  -1.04734 -0.250835
-0.904835  -1.29318 -0.239702
 -0.56593 -0.585299 -0.282387
-0.830176  -1.04028 -0.367012
 -2.85049 -0.340617  -0.56703
 -1.71187 -0.518596  0.213167
-0.710068 -0.661891 -0.544274
-0.863794 -0.871638 -0.661867
-0.516055 0.0195543 -0.136223
-0.506712 0.0166576  -0.11438
-0.498756 0.0198153 -0.142497
 -0.46323 0.0151058 -0.123195
 -0.43963  0.012917 -0.120094
-0.459134 0.0140539  -0.11797
-0.401996 0.0175885 -0.159132
-0.410209 0.0159909  -0.14889
-0.408504 0.0131954 -0.132167
-0.427396 0.0137197  -0.12809
-0.416097 0.0150998 -0.142068
-0.524086 0.0155715 -0.107204
 -0.553252 0.00528163 -0.0527831
 -0.532879 0.00969942 -0.0770193
 -0.572792 0.00966851 -0.0738594
  -0.767673 0.000204538  -0.0588672
 -0.487924  0.0103566 -0.0852845
 -0.449094 0.00803845 -0.0900867
 -0.458959 0.00891996 -0.0861319
 -0.469625 0.00863011 -0.0793271
 -0.478231 0.00778447 -0.0743465
 -0.461418 0.00679793 -0.0741734
 -0.454243  0.0063114 -0.0765855
 -0.449805 0.00510035 -0.0709703
 -0.440366  0.0045528 -0.0759129
 -0.422769 0.00227318 -0.0719317
  -0.43655 0.00334511 -0.0730559
 -0.432045 0.00384823 -0.0751004
 -0.427282 0.00334576 -0.0771701
 -0.435035 0.00675788 -0.0885724
 -0.419057 0.00427314 -0.0822975
 -0.439443 0.00691783 -0.0891712
 -0.436475 0.00466225 -0.0768054
  -0.44936  0.0066193 -0.0797229
 -0.443461 0.00798317 -0.0932161
 -0.442666 0.00915621  -0.100205
 -0.421934 0.00740452 -0.0982048
  -0.41743 0.00689509 -0.0966294
 -0.432751 0.00769824 -0.0953745
-0.413704 0.0102722 -0.113792
-0.421328 0.0118754 -0.121318
-0.415686  0.011495 -0.121905
-0.436761 0.0108907 -0.111395
-0.431722 0.0101518 -0.108651
 -0.440451 0.00981004  -0.102163
-0.448806 0.0103452 -0.102857
 -0.452453 0.00903277 -0.0933893
 -0.45348 0.0113302 -0.105665
-0.456087 0.0137115 -0.117756
-0.488303 0.0134768 -0.100788
 -0.502467  0.0128955 -0.0951264
-0.488486 0.0195084 -0.142428
-0.456881 0.0166074 -0.131633
 -0.46819  0.019884 -0.147732
-0.455193 0.0232051 -0.175219
 -0.46958 0.0252866 -0.188768
-0.497628 0.0246654 -0.177751
-0.475959 0.0206054 -0.150077
-0.680476 0.0175221  -1.39656
 -0.565896 -0.0322782   -1.03153
 -0.5905 0.142077 -1.33799
 -1.40035  0.105053 -0.859699
-0.374408 0.0579753 -0.443663
 -0.36433 0.0554687 -0.427904
-0.385476 0.0555211 -0.425444
-0.319279 0.0645652 -0.496857
-0.368976 0.0527568 -0.406167
-0.356822 0.0517687 -0.397321
-0.326583 0.0689057  -0.56143
-0.328909 0.0220916 -0.504844
-0.345728 0.0145955 -0.534444
  -0.358827 -0.00473348   -0.539708
-0.370241 0.0103618 -0.587944
 -0.454909 -0.0242908  -0.756553
 -0.389943 -0.0113394  -0.607756
 -0.372289 -0.0230187  -0.547795
-0.378746 0.0416227 -0.652966
-0.406628 0.0258057 -0.701604
-0.397486   0.08799 -0.681753
  -0.3541  0.076275 -0.638375
-0.356809 0.0251499 -0.575171
 -0.44344 0.0264184 -0.201837
-0.436337 0.0227426 -0.180774
-0.411135 0.0243564 -0.197373
-0.426108 0.0193397 -0.163888
-0.401675 0.0232367 -0.193493
-0.430877 0.0209855 -0.171646
-0.445726 0.0194751 -0.154875
-0.441823 0.0173764 -0.144893
-0.432153  0.014823 -0.134248
-0.451662 0.0144041 -0.123718
-0.436677 0.0167436 -0.142319
 -0.41029 0.0202893 -0.173623
 -0.41966 0.0177688 -0.156692
 -0.40186 0.0111772  -0.12062
-0.397916 0.0150425 -0.141145
 -0.37646 0.0162875 -0.150731
-0.393029 0.0137805 -0.136481
-0.361539 0.0233399 -0.193541
-0.365157 0.0270553 -0.214454
-0.391886 0.0197435 -0.170813
 -0.40168 0.0156383 -0.147402
-0.393497 0.0211221 -0.179451
-0.362341 0.0315739 -0.248404
-0.338385 0.0390402 -0.299004
-0.378246 0.0267893 -0.215219
-0.375798 0.0293783 -0.233347
-0.347357 0.0430482  -0.33141
-0.312214   0.06008 -0.460527
-0.317824  0.053629 -0.409855
-0.314221 0.0449599 -0.341557
-0.322352 0.0467012 -0.358776
-0.351975  0.038515 -0.296424
 -0.326037 -0.0469096  -0.408419
-0.328379 -0.080664 -0.371174
-0.344644  -0.07119 -0.419512
-0.325195 -0.012648 -0.450717
 -0.343416 -0.0496411  -0.444267
-0.368925 -0.128568  -0.40151
 -0.36632 -0.157645  -0.35709
-0.342603 -0.103315 -0.374524
-0.338949 -0.118736 -0.346116
-0.355035 -0.153362 -0.336886
 -0.37465 -0.188763 -0.334028
  -0.310448 -0.00131885   -0.431713
-0.357531 -0.173554 -0.315748
-0.293508 0.0603156  -0.47406
 -0.30934 0.0280354 -0.467463
 -0.31401 0.0429355 -0.497013
 -0.312312 -0.0550582  -0.368117
 -0.306153 -0.0105488  -0.410783
 -0.29465 0.0344623 -0.442836
-0.346966 -0.160486 -0.309525
 -0.322705 -0.0917527  -0.345025
-0.348133 -0.147928 -0.328536
-0.311781 -0.119735 -0.287802
-0.305152  -0.12173  -0.27287
  -0.2948 -0.074462 -0.308503
 -0.301864 -0.0981324  -0.293989
 -0.298343 -0.0780925  -0.311208
 -0.280464 -0.0667487  -0.290707
 -0.274653 -0.0267881  -0.326576
 -0.271905 -0.0474316  -0.297749
 -0.273234 -0.0799925  -0.262499
 -0.28297 -0.110358 -0.244589
-0.290571 -0.100319 -0.270562
-0.312809 -0.114017 -0.296756
-0.327183 -0.134251 -0.300978
-0.332736 -0.127103 -0.321833
-0.335379 -0.146291 -0.303019
 -0.33747 -0.159158 -0.290963
-0.319427 -0.106187 -0.319475
 -0.300151 -0.0387856   -0.36247
-0.314022 -0.083786 -0.336214
 -0.306513 -0.0689294   -0.33875
-0.313127 -0.103856 -0.309538
 -0.290714 -0.0405962  -0.341217
 -0.273307 -0.0014306  -0.354232
 -0.274028 0.00349458  -0.361849
   -0.28612 -0.00206864   -0.378847
  -0.282439 -0.00914765   -0.362841
 -0.278986 -0.0226792  -0.339398
-0.272568 0.0358532 -0.398799
-0.276643 0.0425498  -0.41514
-0.284998 0.0270381 -0.412938
 -0.28918 0.0475476 -0.358535
-0.286414 0.0476441 -0.360023
-0.276644 0.0511346 -0.389183
-0.278888 0.0491395 -0.365986
 -0.27794 0.0521477 -0.396561
-0.265063   0.02615 -0.372461
-0.277105 0.0530039 -0.398611
 -0.29519 0.0469731 -0.356405
-0.261597 -0.026638 -0.303162
   -0.26249 -0.00129972   -0.334655
 -0.29754 0.0401351 -0.296293
-0.313128 0.0305982 -0.230732
-0.284461 0.0341517 -0.242999
-0.278883  0.039716 -0.280015
-0.272315  0.047331 -0.343523
-0.332382 0.0267193 -0.209908
 -0.31425 0.0316662  -0.24381
-0.327469 0.0267731 -0.210644
-0.330067 0.0250229 -0.199153
-0.370681 0.0129195 -0.131948
-0.373555 0.0143717 -0.139265
 -0.405271 0.00814374  -0.102417
 -0.412551 0.00633301  -0.094144
 -0.410133 0.00475479 -0.0859533
 -0.405058 0.00502885 -0.0884734
 -0.402975  0.0069233 -0.0986267
-0.367421 0.0117605 -0.121969
 -0.389817 0.00836554  -0.106078
 -0.398519 0.00598307 -0.0946472
 -0.365791 0.00715524  -0.101669
-0.341192 0.0175422 -0.154441
-0.358542 0.0109275 -0.120045
 -0.372401 0.00763526  -0.103768
 -0.392325 0.00592545 -0.0927457
 -0.405735 0.00173335  -0.075726
 -0.396153  0.0029173 -0.0817203
-0.39045 0.003272 -0.08289
 -0.371147 0.00518188 -0.0900621
 -0.377496 0.00471179 -0.0904911
 -0.386752 0.00248348 -0.0793576
 -0.359595 0.00599422 -0.0951554
-0.345628 0.0101939 -0.112433
 -0.323151 0.00981058  -0.124571
 -0.33019 0.0140868 -0.129735
-0.276282 0.0298772 -0.230155
-0.240691 0.0365051 -0.297773
 -0.299184 0.00925609  -0.150205
-0.277828 0.0128513 -0.193207
 -0.323747 -0.0721066  -0.120506
 -0.290525 -0.0825349  -0.217527
  -0.32174 -0.0878347  -0.132211
 -0.328775 -0.0958407  -0.115695
-0.328736  -0.10407 -0.115432
-0.311735 -0.111243 -0.160457
 -0.323115 -0.0832643  -0.125906
 -0.322357 -0.0642173  -0.120559
 -0.319245 -0.0460337  -0.117526
 -0.324927 -0.0598406  -0.111696
  -0.31783 -0.0730608  -0.133679
-0.233939 0.0426312 -0.336383
  -0.258092 -0.00909352   -0.274717
 -0.251407 0.00111588  -0.317765
 -0.24799 0.0370554 -0.354781
 -0.263819 -0.0296175   -0.27563
 -0.292981 -0.0854859  -0.211108
-0.293183 -0.104558 -0.211938
  -0.30742 -0.0929837  -0.170819
-0.312966 -0.102615 -0.153202
 -0.314261 -0.0920478  -0.151034
 -0.308454 -0.0801998  -0.160414
 -0.309183 -0.0660476  -0.154759
 -0.322899 -0.0878308  -0.118308
-0.286503 -0.133197 -0.224989
-0.301407 -0.115055 -0.185024
-0.301959 -0.182714 -0.196441
-0.312053 -0.197001 -0.197824
-0.297421 -0.161147 -0.212871
-0.314481 -0.184912 -0.216665
-0.309052 -0.182511 -0.209217
-0.324038 -0.208126 -0.206944
 -0.30025 -0.159137 -0.220239
-0.291953 -0.137306  -0.23028
-0.304056 -0.153346 -0.234246
-0.294572 -0.125124 -0.249116
-0.329745 -0.183535 -0.246978
-0.403136 -0.284767 -0.273439
-0.389014  -0.26556 -0.266189
-0.351691 -0.217116 -0.248657
 -0.34443 -0.209087  -0.24426
-0.335294 -0.204832 -0.232389
-0.345386 -0.221423  -0.23126
-0.331525 -0.216122 -0.211199
-0.324786 -0.197459 -0.221332
-0.319521 -0.178132  -0.23383
-0.310102 -0.137721 -0.153912
-0.302566 -0.151238 -0.180442
-0.307262 -0.122778 -0.162371
-0.317553 -0.131477 -0.130311
-0.320247 -0.158973 -0.135093
-0.314308 -0.189014 -0.167872
-0.329963  -0.15017 -0.107881
-0.324779 -0.143633 -0.118413
-0.320119 -0.121815  -0.13305
 -0.32431 -0.131348 -0.119754
-0.327434 -0.144694 -0.105494
-0.318366 -0.226863 -0.176327
-0.332097 -0.153041 -0.103488
-0.318962 -0.222487 -0.181692
-0.349051 -0.260629 -0.193665
-0.360503 -0.278098 -0.195192
-0.365041 -0.294362 -0.186136
-0.332655 -0.245021 -0.181496
-0.329511 -0.248396 -0.172732
-0.345564 -0.270243 -0.177713
-0.361069 -0.296317  -0.17732
-0.421899 -0.386529 -0.194061
-0.401358  -0.35209 -0.190894
-0.467532 -0.447333 -0.221097
-0.457981 -0.451532 -0.196538
-0.434631 -0.405467 -0.198991
 -0.42055 -0.366727  -0.21326
 -0.44415 -0.402818 -0.221839
-0.419976 -0.357878 -0.222001
-0.380804 -0.303876 -0.204621
-0.375036 -0.308733 -0.188956
-0.392381 -0.335561 -0.191898
-0.379471 -0.283755  -0.22471
-0.381736 -0.283725 -0.229175
-0.395839 -0.301717 -0.236812
 -0.40673 -0.332869 -0.223343
-0.392693 -0.315915 -0.214178
-0.421882 -0.327489 -0.261878
-0.409741 -0.312552 -0.253481
-0.392661 -0.287114 -0.247459
-0.385141 -0.270901 -0.251331
-0.378286 -0.266028 -0.243057
-0.402979  -0.31333  -0.23765
-0.364873 -0.266046 -0.216556
 -0.35336 -0.256943 -0.205431
 -0.36866 -0.283351 -0.204459
-0.349889 -0.242341 -0.215432
-0.370319 -0.271667 -0.220439
-0.367823 -0.252524 -0.237837
-0.341715  -0.22744 -0.217229
-0.335519 -0.220319 -0.213741
-0.314965 -0.209102 -0.189272
-0.335568 -0.234264 -0.198029
-0.326063 -0.222083 -0.194423
-0.341534 -0.231941 -0.211741
-0.131345 -0.141657 -0.082543
 -0.138928  -0.130131 -0.0963596
-0.164103 -0.108206 -0.128577
-0.155667 -0.126061 -0.109388
 -0.14907 -0.116169 -0.113794
-0.143352 -0.117131   -0.1099
-0.145281 -0.101184 -0.123794
-0.157132 -0.107408 -0.125218
-0.141204 -0.116667 -0.109129
-0.136775 -0.113918 -0.108809
 -0.133471   -0.13189 -0.0917904
 -0.134477 -0.0950312   -0.12288
 -0.137782 -0.0943296  -0.125338
-0.316969 -0.134908 -0.280085
-0.319168 -0.154073 -0.261789
-0.309717 -0.149673 -0.248884
-0.329297 -0.157423 -0.277134
-0.326736 -0.144275 -0.287906
-0.339377 -0.164592 -0.288331
-0.341534 -0.183749 -0.269283
-0.335498  -0.17713 -0.265473
-0.342514 -0.197072 -0.255273
-0.347531 -0.179144 -0.286288
-0.351559 -0.193372 -0.277729
-0.364496 -0.198108 -0.299195
-0.376252 -0.220008 -0.295523
-0.346867 -0.184847 -0.278302
-0.385309 -0.220292 -0.316041
-0.371523    -0.196 -0.317537
 -0.39019 -0.213582 -0.336632
-0.395644 -0.237307 -0.316629
-0.370948 -0.210794   -0.2966
-0.381201 -0.226674 -0.298365
-0.366773  -0.22308 -0.272434
-0.381666 -0.246124 -0.274665
-0.397151 -0.259087 -0.292093
-0.364158 -0.234773 -0.251952
-0.348983 -0.209654 -0.252273
-0.348848 -0.188953 -0.277525
-0.350545 -0.183576 -0.287554
-0.380799 -0.234804  -0.28729
-0.380019 -0.229409 -0.292529
-0.404267 -0.271395 -0.292522
-0.394169 -0.254865 -0.290686
-0.393219 -0.242964 -0.303658
 -0.193927 -0.0666732  -0.180967
 -0.181172 -0.0873003  -0.153499
-0.169864 -0.105124 -0.133843
-0.172295 -0.089961 -0.147015
  -0.17793 -0.0745507  -0.161657
 -0.193103 0.00296558  -0.245359
-0.186897 0.0345443 -0.275494
 -0.17554 0.0627006 -0.307344
 -0.200028 -0.0496225  -0.202897
 -0.194912 -0.0405262  -0.206069
 -0.187652 -0.0569819  -0.183368
 -0.182073 0.00806697  -0.237026
 -0.166478 -0.0908587  -0.143395
 -0.166733 -0.0732787  -0.157131
 -0.171846 -0.0538338  -0.174308
 -0.182418 -0.0252418  -0.206863
   -0.170487 -0.000964823    -0.216375
 -0.162356 -0.0355345  -0.183363
 -0.160962 -0.0575546  -0.166445
 -0.152084 -0.0914149  -0.135357
   -0.1604 -0.0899469  -0.140643
 -0.162669 -0.0704654  -0.156744
 -0.158755 -0.0139809   -0.19752
 -0.145218 -0.0835324  -0.137568
-0.148157 -0.067537 -0.151459
 -0.155784 -0.0479732  -0.170713
   -0.153734 -0.000556719    -0.206907
 -0.145008 -0.0137724  -0.190594
  -0.14234 -0.0395435  -0.169729
 -0.131153 -0.0790583  -0.133781
 -0.143981 -0.0568956  -0.157559
-0.143902 0.0408426 -0.255894
-0.145832 0.0466477 -0.264078
-0.145807 0.0838419 -0.311451
-0.157576 0.0561586 -0.281843
-0.157096 0.0258982 -0.242674
 -0.153422 -0.0762292  -0.147749
 -0.157483 -0.0625349  -0.160458
-0.164295 0.0132135 -0.229815
-0.164099 0.0389554 -0.262691
 -0.16631 0.0625789 -0.298046
-0.174476 0.0295288 -0.256603
-0.165009 0.0921897 -0.342946
-0.152025 0.0928029 -0.331687
-0.133818  0.129434 -0.372157
0.231741 0.359818 -1.20919
 0.16713 0.449726 -1.21529
-0.0319478   0.370737  -0.823649
-0.0711367   0.289807  -0.647482
-0.0122073   0.376712  -0.830825
-0.0609365   0.316458   -0.70608
-0.00204037    0.450147   -0.999427
0.0985952   0.52041  -1.20958
  -0.173851   -0.281267 -0.00728635
 -0.147128  -0.240324 -0.0184507
 -0.155822  -0.244377 -0.0209686
 -0.146919  -0.225691 -0.0288359
  -0.14184  -0.212655 -0.0349037
-0.141749  -0.22749 -0.024666
-0.133672 -0.219078 -0.026052
-0.139762 -0.238534 -0.015691
-0.156574 -0.260319 -0.010373
  0.485552 -0.0774231   -1.35835
 -0.128005  -0.213158 -0.0268828
-0.121131 -0.211023 -0.024543
-0.165109  -0.30316  0.013382
  -0.110151   -0.235839 -0.00186814
  -0.105775   -0.225119 -0.00710941
 -0.101859  -0.214736 -0.0121872
    -0.1032   -0.227126 -0.00454744
  -0.104521   -0.228613 -0.00443787
  -0.103921   -0.232227 -0.00126013
 -0.0997783   -0.220779 -0.00707788
 -0.0915111   -0.211285 -0.00940641
 -0.107224  -0.231234 -0.0036905
 -0.111193  -0.244858 0.00379256
-0.124295 -0.280614 0.0205096
  -0.12002  -0.256682 0.00738521
-0.151124 -0.290324 0.0129897
 -0.123812  -0.222297 -0.0179756
  -0.136706   -0.245471 -0.00904031
-0.116841 -0.222508 -0.014169
  -0.10912  -0.215077 -0.0156586
 -0.103893  -0.202013 -0.0218544
 -0.112863  -0.209975 -0.0208534
 -0.129983  -0.199556 -0.0372562
 -0.126711  -0.197079 -0.0369943
 -0.111893  -0.198275 -0.0281406
-0.0969125   -0.16369 -0.0462209
 -0.105571  -0.196537 -0.0266261
 -0.119163  -0.194508 -0.0341888
-0.0988402  -0.200151 -0.0203186
-0.0910593  -0.183841 -0.0280551
-0.0927099  -0.196442 -0.0199876
-0.0823835  -0.197714 -0.0144073
-0.0945715  -0.207844 -0.0129951
-0.0720979  -0.189599 -0.0157625
-0.0560703  -0.182923 -0.0168003
-0.0759468  -0.182715 -0.0218867
-0.0558327  -0.149363 -0.0434407
-0.0598187  -0.149496 -0.0436409
-0.0583215  -0.170935 -0.0262804
-0.0715663  -0.166269 -0.0319045
-0.0848531  -0.161911 -0.0408704
-0.0784818   -0.15989 -0.0391508
 0.119528  0.156289 -0.564684
0.110528 0.202921 -0.63394
 0.210745 0.0646032 -0.686592
 0.174212   0.13224 -0.648099
0.332643 0.164069 -1.11831
 0.312867 0.0799464  -0.97613
0.378751 0.017499 -1.11695
0.286682  0.29548 -1.23006
0.250333 0.229281 -1.01278
  0.21662   0.17414 -0.827202
0.0779815  0.339204 -0.829182
 0.119811  0.292742 -0.820312
 0.118067   0.25118 -0.738995
 0.180288  0.283557 -0.937325
 0.149689  0.337906 -0.964748
0.204893 0.321975 -1.07082
 -0.131699  -0.198672 -0.0389641
 -0.103229   -0.17182 -0.0430463
 -0.121647  -0.165541 -0.0579705
-0.0893914   0.290074  -0.655769
0.0481859   0.41805 -0.923362
 -0.123862  -0.125424 -0.0914146
 -0.125116   -0.14713 -0.0748763
-0.117638 -0.107362 -0.102894
-0.129328 -0.115884  -0.10271
-0.122813 -0.106924 -0.106404
 -0.108195  -0.116261 -0.0909051
 -0.108676  -0.120737 -0.0873168
 -0.100926  -0.114074 -0.0886921
 -0.112136  -0.135771 -0.0769551
 -0.116636  -0.140083 -0.0759162
 -0.118342  -0.131595 -0.0835429
-0.0961859 -0.0998942 -0.0986021
-0.0788775 -0.0985853 -0.0912684
-0.0511118 -0.0922004 -0.0929646
-0.0517925  -0.095902 -0.0901203
-0.0466107 -0.0985517 -0.0871332
-0.0501579  -0.100562 -0.0860478
-0.0540103  -0.102704 -0.0848686
-0.0607295  -0.100872  -0.086927
-0.0700251 -0.0997826 -0.0886753
-0.0865882  -0.107618 -0.0872538
-0.0997678  -0.126001 -0.0782619
-0.0532608  -0.111834 -0.0768448
-0.0549807   -0.11026 -0.0782732
-0.0442842  -0.110056 -0.0764189
-0.0519167  -0.120844 -0.0677523
-0.0525462   -0.12332 -0.0655642
-0.0553244  -0.119175 -0.0700988
-0.0608427  -0.132153  -0.058267
-0.0645256  -0.145246  -0.047152
-0.0721707  -0.135858 -0.0566874
-0.0864019  -0.149351 -0.0523987
 -0.105791  -0.146694 -0.0647652
 -0.103098  -0.156621 -0.0553857
-0.0761345  -0.133168     -0.061
-0.0719476  -0.111075 -0.0790012
-0.0795743  -0.117325  -0.076333
-0.0891334  -0.127697 -0.0721787
-0.0891868  -0.140961 -0.0613454
-0.0746399  -0.122082 -0.0699042
-0.0584191  -0.112787 -0.0763778
-0.0668278 -0.0926527 -0.0947585
-0.0999865 -0.0969474  -0.102705
 -0.121618 -0.0928082  -0.117083
 -0.115636 -0.0926993  -0.113937
 -0.107732 -0.0859469  -0.115554
 -0.093624 -0.0698044   -0.12108
 -0.103918 -0.0752193  -0.122504
 -0.115817 -0.0784957  -0.125961
-0.0971637 -0.0831278  -0.112171
-0.0837888 -0.0669467  -0.118078
-0.0715021  -0.086727 -0.0996804
-0.0633723 -0.0872332 -0.0986169
-0.0577503 -0.0941909  -0.092483
-0.0493599 -0.0856899 -0.0985275
-0.0413845 -0.0853748 -0.0978508
-0.0414981 -0.0881891 -0.0953414
-0.0486835 -0.0650927  -0.116009
-0.0397492 -0.0745059  -0.106411
-0.0529765 -0.0822549  -0.100916
-0.0760615 -0.0795143  -0.106587
-0.0698696 -0.0750249  -0.109276
-0.0611144 -0.0638219  -0.118774
-0.0682729 -0.0442511  -0.136949
-0.0700597 -0.0569901  -0.125577
-0.0329041 -0.0533915  -0.125249
-0.0581297 -0.0529642  -0.127852
-0.0415598 -0.0424983  -0.136093
   -0.036461 -0.000289464    -0.174378
-0.0314757 -0.0286267  -0.148247
-0.0215544   0.012478  -0.185263
-0.0734715 -0.0354504   -0.14523
-0.0534825 -0.0308794  -0.147832
-0.0620181 -0.0180165  -0.160109
-0.0831738 -0.0315319   -0.14927
-0.0809103  -0.038175  -0.143521
-0.0813342 -0.0422427  -0.139648
-0.0987654 -0.0604946  -0.131075
-0.0893471 -0.0483165  -0.135883
 -0.104514 -0.0461368  -0.145441
 -0.124331 -0.0636407  -0.142199
 -0.118713 -0.0617455  -0.140532
 -0.124055 -0.0814717  -0.127769
 -0.113039 -0.0635072  -0.136279
 -0.120054 -0.0579214  -0.144804
 -0.117018 -0.0528962  -0.146474
 -0.124551 -0.0431721  -0.157782
 -0.135382 -0.0213325    -0.1795
 -0.118543 -0.0110957  -0.178061
 -0.110247 -0.0265959  -0.162676
-0.0990934 -0.0180206  -0.163539
-0.0870349  0.0333763  -0.216998
-0.104039 0.0161552 -0.203864
-0.122244 0.0142855 -0.210561
 -0.144383 -0.0179429   -0.18698
  -0.14325 0.00709033  -0.211682
  -0.133257 -0.00328666   -0.194029
-0.137288 0.0180453 -0.223025
-0.0647064  0.0681077  -0.249222
-0.0694274  0.0991455  -0.291086
-0.0910043  0.0497166  -0.239172
-0.107206 0.0410666 -0.236739
-0.0859764   0.135558  -0.346443
-0.0813992   0.095268   -0.29201
-0.0393207   0.137381   -0.34831
-0.111051 0.0766703 -0.283893
-0.129942  0.047744 -0.257062
-0.135972 0.0466768 -0.259112
-0.0812492   0.215126  -0.482677
0.00335088    0.26374  -0.571299
-0.0422184   0.244378  -0.533964
-0.102247  0.220764 -0.509427
   -0.132  0.176138 -0.446676
-0.118583  0.236412 -0.553742
-0.0739937   0.290314  -0.649162
0.00727349   0.317668  -0.688331
0.00848308   0.313721  -0.679714
-0.0492843   0.272155  -0.597315
-0.125161  0.200518 -0.486817
-0.143115  0.122564 -0.370288
-0.139183 0.0854519 -0.310198
-0.136106 0.0959514 -0.321813
  -0.14605 0.00897884  -0.215633
-0.145037 0.0322796 -0.245309
-0.144664 0.0711659 -0.294766
-0.0693908   0.190653  -0.432993
-0.0218602   0.199774  -0.445531
-0.0580739   0.156418  -0.373694
-0.099351  0.174461 -0.416263
-0.0368773   0.230035  -0.502699
-0.122998  0.153604 -0.399033
0.0260543  0.169854 -0.427229
0.0317451  0.155216 -0.410415
0.00162932   0.120756  -0.338487
-0.0191613   0.116806  -0.324289
0.0277184  0.133171 -0.368614
0.0552835  0.135853 -0.411133
0.0294821  0.116613 -0.344373
0.0328658 0.0918123 -0.308994
0.0757723   0.11956 -0.414802
0.0558086  0.152483  -0.44105
 0.098929  0.132916 -0.480201
 0.125125  0.138623 -0.543364
0.0794822  0.208493  -0.58441
0.0384656  0.308529 -0.703569
0.0709983   0.28613 -0.715698
0.0791709  0.246737 -0.656184
0.0809692  0.173564   -0.5215
0.0483002   0.20423 -0.523527
0.0418344   0.25359 -0.605114
0.0182702  0.209445 -0.484928
0.0540352   0.17676 -0.482431
0.0872106   0.14913 -0.487664
0.00990807  0.0660212  -0.260539
0.00950819  0.0838123  -0.286932
-0.048781 0.0989381 -0.290745
-0.00557681    0.101189   -0.306911
-0.00174663    0.101806   -0.309209
-0.0246176  0.0885465  -0.281513
-0.0367889  0.0709046  -0.252951
-0.0315693  0.0893388  -0.280761
-0.0527439  0.0598187   -0.23702
-0.0238051  0.0728573  -0.258857
-0.0163823  0.0709486  -0.258218
-0.0504919  0.0456379   -0.21999
-0.0342979  0.0451045  -0.220759
-0.00768054   0.0453594   -0.223126
-0.0672748  0.0414331   -0.21698
-0.0597517  0.0461194  -0.219746
 -0.0691016 -0.00111348   -0.175055
 -0.0731272 -0.00162901   -0.174625
 -0.0760466 -0.00774501   -0.169724
-0.0723174 -0.0028345  -0.173931
-0.0317539  0.0329227  -0.205664
 -0.0449601 0.000699783   -0.175681
-0.0654953 0.00955767  -0.184058
-0.0276103 -0.0687674  -0.114925
-0.0364483 -0.0809144  -0.101095
-0.0163262 -0.0831181  -0.114165
-0.0207787 -0.0773768  -0.114922
 -0.024519 -0.0729134  -0.114843
 0.0157117 -0.0507602  -0.158408
 0.0178101 -0.0479864  -0.161959
0.00645057 -0.0736543  -0.138032
-0.00619884  -0.0576338   -0.137101
-0.0196342 -0.0677967  -0.121496
-0.0234277  -0.048075  -0.129857
-0.0139296 -0.0346492  -0.143969
 0.0106052 -0.0366203  -0.161639
0.0157416 0.0163303 -0.196137
  -0.012054 -0.00953889   -0.164767
0.00847566  0.0432429  -0.225726
0.0326158 0.0380915 -0.243906
0.0353685 0.0110715 -0.226937
 0.0419598 -0.0229392  -0.210708
 0.0211748 -0.0455503   -0.16551
 0.0346504 -0.0331261  -0.188176
0.0242698  -0.00715 -0.191072
0.0658372 0.0216922 -0.298336
  0.0743271 -0.00100583   -0.297092
0.0676729 0.0620341 -0.336347
0.0723905 0.0947641 -0.375077
0.0494362 0.0897983  -0.32455
  0.10312  0.104893 -0.451333
 0.107996 0.0690459 -0.431376
 0.108247 0.0358902 -0.403236
 0.0986429 0.00240805  -0.353754
0.0850278 0.0261706 -0.343416
0.0877991 0.0641412 -0.381496
-0.0283851 -0.0924018  -0.100168
-0.0358471 -0.0938587 -0.0923238
-0.0417249 -0.0834912 -0.0991456
 -0.031094 -0.0933397 -0.0966367
-0.0375266  -0.084015 -0.0981382
0.0515533 0.0159967 -0.263718
-0.0210205 -0.0906296   -0.10648
-0.0247399 -0.0961884 -0.0996373
-0.0291936 -0.0935724 -0.0984449
 0.0545109 -0.0449055  -0.217686
 0.0538754 -0.0120973   -0.24442
0.0641297 -0.116143 -0.181338
 0.055898 -0.105716 -0.172994
0.0400098 -0.158465 -0.157581
 0.069762 -0.098502 -0.205323
 0.0764125 -0.0917851   -0.22414
 0.0973495 -0.0332624  -0.319997
 0.0838254 -0.0679146  -0.260114
 0.0835895 -0.0877208  -0.242657
 0.0852422 -0.0486865  -0.279425
  0.070924 -0.0495278  -0.248265
0.0787553 -0.018688  -0.29145
 0.0649657 -0.0786807  -0.210988
 0.0731483 -0.0730413  -0.233229
 0.0581913 -0.0913781  -0.188799
 0.0634093 -0.0329377  -0.247072
 0.0601871 -0.0585113  -0.218094
  0.047246 -0.0893104  -0.169902
 0.0288691 -0.0852459  -0.150678
 0.0371811 -0.0700209   -0.16745
 0.0456737 -0.0593249  -0.188717
0.000567265  -0.0846776   -0.126368
   0.01773 -0.0927748  -0.136073
0.0125301 -0.095082 -0.130604
0.0104676 -0.103576 -0.123298
0.00244582  -0.110564  -0.111538
0.0108597 -0.132264 -0.121918
0.000943866   -0.107276   -0.112821
-0.00930711  -0.0975568   -0.110857
-0.00845847  -0.0992448   -0.110098
-0.00975806  -0.0990695   -0.109288
-0.0133542  -0.109758 -0.0990069
-0.00236398   -0.107593   -0.110183
-0.0044539  -0.166051  -0.107151
-0.00160237    -0.11383   -0.106024
-0.00556381   -0.194201   -0.105929
-0.0175235  -0.151682  -0.092911
-0.0173752  -0.165014 -0.0929646
-0.0154675   -0.15001 -0.0950285
-0.00991067   -0.144895   -0.099001
-0.0235034  -0.115094 -0.0871696
-0.0249215  -0.139119 -0.0864486
-0.0290493  -0.119696  -0.079474
-0.0418366  -0.102166   -0.08319
-0.0293524  -0.140299 -0.0864002
-0.0237291  -0.160808 -0.0860387
 -0.041705  -0.182587 -0.0902363
-0.0326782  -0.159965  -0.089265
-0.0265837  -0.159013 -0.0840144
-0.0220503  -0.136409 -0.0658258
-0.0231341  -0.148768  -0.087002
-0.0100417  -0.136933 -0.0753127
5.23206e-05   -0.150248  -0.0677348
0.00735973  -0.161753 -0.0616135
-0.0129443   -0.11848  -0.093287
-0.0182556  -0.123956 -0.0827037
0.000910928    -0.16327  -0.0553714
-0.0141723  -0.149674 -0.0584849
-0.0180467  -0.156822 -0.0465473
-0.00604567   -0.167102  -0.0454975
-0.0365342  -0.145071  -0.064815
0.00188068  -0.176504 -0.0417978
-0.0334794  -0.148867 -0.0442403
-0.0260272  -0.192749 -0.0772971
-0.0402074  -0.153636 -0.0480172
-0.0478347  -0.153507 -0.0396531
-0.0379398  -0.150287 -0.0574838
-0.0482673  -0.135193 -0.0546651
-0.0398297  -0.123374 -0.0645127
-0.0222665  -0.191906 -0.0840367
-0.0355087   -0.14199 -0.0830278
-0.0385947  -0.112662 -0.0768021
-0.0178488   -0.18962 -0.0920258
-0.0106723  -0.183672  -0.102566
-0.00208249   -0.198804   -0.115671
-0.0167649  -0.204885 -0.0942814
-0.00466446   -0.186046   -0.107298
-0.00740475   -0.192656   -0.103932
-0.0139842  -0.202028 -0.0984125
-0.0071451  -0.200056  -0.106867
0.0075343 -0.208965 -0.129492
0.0629097 -0.150095 -0.183797
0.00796844  -0.208467  -0.130353
0.0020777 -0.206916 -0.118362
0.00543618  -0.204182  -0.124074
0.0853074 -0.115648 -0.223937
   0.10068 -0.0960858  -0.272974
0.0875895 -0.098668 -0.242367
 0.0948571 -0.0808877  -0.273042
 0.0996747 -0.0609287  -0.301562
0.0787995 -0.105753 -0.218472
0.0648991 -0.130606 -0.183169
0.0098569 -0.207193 -0.131157
0.0532232 -0.147147 -0.172058
-0.0471104  -0.171156 -0.0405729
-0.0441228  -0.174056 -0.0230274
0.00219051  -0.212748   -0.11459
 -0.029121   -0.16966 -0.0288757
-0.0386537   -0.16436 -0.0300715
0.00470891  -0.211731   -0.13177
0.0112539 -0.204741 -0.132308
0.00906626   -0.21086  -0.134067
0.0510962 -0.173786  -0.17914
0.0600978 -0.164567 -0.189066
0.0474602 -0.183428  -0.17732
0.0197623 -0.213677 -0.148126
-0.0539432  -0.171837 -0.0261551
   -0.0613  -0.184971 -0.0161868
 0.120416 -0.152004 -0.273415
0.0778461 -0.139464 -0.203806
 0.104412 -0.115402  -0.26532
0.0953545 -0.130818 -0.233323
 0.108535 -0.131085 -0.261703
 0.117355 -0.114584 -0.296922
  0.113709 -0.0976336  -0.302507
  0.114734 -0.0787302  -0.321488
 0.123383 -0.133211   -0.2959
 0.124403 -0.158662 -0.278599
 0.124271 -0.155803 -0.280201
 0.140542 -0.154075 -0.324099
 0.144095 -0.163273 -0.325753
 0.122257 -0.156687 -0.274628
0.0734854 -0.156712 -0.204972
 0.101636 -0.142405 -0.237923
 0.117651 -0.166241  -0.26791
 0.127417 -0.162097  -0.28302
 0.102219 -0.159077 -0.243246
0.0635061 -0.170349 -0.194945
 0.435859 -0.375582  -1.06058
 0.234695 -0.246368 -0.534953
 0.205951 -0.211752 -0.469902
 0.184366  -0.21172 -0.407284
  0.18937 -0.183639 -0.439704
0.160333 -0.15087 -0.38027
 0.144615 -0.157214 -0.331701
 0.137995  -0.13813 -0.328937
 0.133704 -0.116838 -0.336423
  0.128121 -0.0990236  -0.336654
 0.153466 -0.125518  -0.38127
 0.213388 -0.142594 -0.535433
 0.212151 -0.180345 -0.506817
 0.180385 -0.145814 -0.439975
  0.132905 -0.0863588  -0.359571
 0.136963 -0.051852 -0.399045
  0.151892 -0.0358584  -0.450188
 0.116855 -0.035459 -0.363972
  0.115262 -0.0576002  -0.340994
  0.120158 -0.0274097  -0.378766
    0.123673 -0.000837409    -0.408648
 0.132741  0.077836 -0.497095
 0.152579 0.0475945  -0.51921
   0.149657 -0.00702781   -0.466392
  0.146501 -0.0436695  -0.430275
  0.155358 -0.0777545  -0.424344
  0.174334 -0.0489126   -0.49735
  0.179736 -0.0924361  -0.478151
 0.214864 -0.112466 -0.560947
  0.17515 -0.115485 -0.448574
 0.147747 -0.106098 -0.381825
  0.27166 -0.152055 -0.697069
 0.513095 -0.354443  -1.29689
  0.212169 -0.0694495  -0.585686
  0.197583 -0.0333581   -0.57453
  0.179098 -0.0404215  -0.518894
0.475477  -0.1187 -1.30675
  0.382988 -0.0380029   -1.09287
 0.138668  0.102685 -0.533184
 0.175128   0.07216 -0.598584
 0.207425 0.0141794 -0.638092
  0.230642 -0.0139952  -0.681767
 0.192303 0.0163519 -0.598492
 0.168263 0.0613227  -0.57215
  0.279632 -0.0436837  -0.796888
  0.266683 -0.0205729  -0.777322
 0.413527 -0.136991  -1.11939
  0.309183 -0.0705312  -0.861774
  0.175514 -0.0158821  -0.527137
  0.204679 -0.0268036  -0.599386
  0.250993 -0.0305792   -0.72615
  0.262041 -0.0498093  -0.741791
  0.218796 -0.0354186   -0.63239
  0.266066 -0.0993957  -0.716685
 0.325464 -0.158535 -0.849355
  0.321565 -0.0886689  -0.884034
  0.353151 -0.0767815   -0.98457
 0.51332 -0.25424 -1.34093
0.505116 -0.16534 -1.36594
 0.395658 -0.144384  -1.06179
 0.398827 -0.246109   -1.0139
 0.526339 -0.380283  -1.32438
 0.493185 -0.579901  -1.17136
 0.433187 -0.569431   -1.0039
  0.46693 -0.833733  -1.06794
 0.323107 -0.956383 -0.887867
-0.509442 -0.801758  0.013213
 -0.157533  -0.350174 -0.0713035
 -0.152037  -0.357554 -0.0846589
 -0.145665  -0.336456 -0.0750684
 -0.150525  -0.340543 -0.0691042
-0.349237 -0.606723  0.055377
 -0.152131  -0.341918 -0.0647203
 -0.175142  -0.357384 -0.0405018
-0.202257 -0.339082 0.0129395
-0.219523 -0.376424 0.0152924
  -0.202916    -0.36757 -0.00247542
-0.209466 -0.360119 0.0221805
-0.214709 -0.364767   0.02104
 -0.184368  -0.353413 -0.0250704
  -0.14998  -0.342036 -0.0699751
 -0.165296  -0.355215 -0.0565561
   -0.23125   -0.418563 -0.00197693
-0.153481  -0.33651 -0.037659
 -0.188673  -0.395449 -0.0525332
 -0.522793  -0.815346 -0.0124726
  -0.506546   -0.785554 0.000976772
-0.496131 -0.761565  0.023711
 -0.533561  -0.837611 -0.0270331
-0.164214 -0.392251 0.0803204
-0.279936 -0.504652 0.0737212
-0.231053 -0.455326 0.0824538
-0.194102 -0.403852 0.0703151
-0.138628 -0.377107 0.0810981
-0.139651 -0.350035 0.0618236
 -0.12958 -0.330828 0.0528243
-0.124528 -0.286373 0.0246391
-0.130689 -0.303393 0.0334857
-0.146496 -0.320288 0.0369898
-0.160484 -0.357839 0.0565119
-0.146114  -0.33741 0.0496394
-0.137224 -0.340529 0.0558916
-0.153538 -0.310958 0.0258781
-0.165676 -0.327357 0.0305111
-0.164892 -0.319818  0.025005
-0.140782 -0.294168 0.0213458
-0.137999 -0.300427 0.0274347
-0.185938 -0.332751 0.0200431
-0.187526 -0.334266 0.0199252
-0.191354 -0.346835 0.0268258
-0.208909 -0.382524 0.0409742
-0.182036 -0.346637 0.0341774
-0.173312 -0.352823 0.0448631
-0.191887 -0.349062 0.0279568
-0.221445 -0.415921 0.0583191
-0.193364 -0.363007 0.0386159
-0.216769 -0.388231 0.0383609
-0.647654  -1.24861  0.267013
-0.669733  -1.22863  0.147235
-0.537891 -0.867539 0.0101715
-0.707712  -1.30886  0.203578
 -0.22805 -0.660917  0.241152
-0.394685  -1.16714  0.373053
-0.368331  -1.16978  0.327714
-0.302501  -1.20182   0.21376
-0.383472  -1.37618  0.299325
-0.52526  -1.1379 0.316108
-0.278064  -0.58411   0.13023
-0.330958 -0.729649  0.206351
-0.542137  -1.14067   0.31477
-0.00651482   -0.179316  -0.0322969
0.00161611  -0.186331 -0.0314739
-0.00221435   -0.199547  -0.0202208
-0.00353556   -0.192966  -0.0242739
-0.000548059    -0.193326   -0.0256038
-0.0175739  -0.189169 -0.0188887
-0.0114136  -0.187918 -0.0235034
-0.0240318  -0.179196 -0.0232083
-0.0163803  -0.175855   -0.03024
-0.0249482  -0.174733 -0.0269353
-0.0345855  -0.179182 -0.0193572
-0.0503078    -0.1803 -0.0188517
 -0.0522098   -0.194109 -0.00932454
  -0.0519323    -0.206326 -0.000950428
-0.0545316   -0.21931 0.00830907
 -0.0429329   -0.204375 -0.00230184
-0.0322599  -0.204571 -0.0047943
 -0.0513543   -0.193892 -0.00940815
-0.0326626   -0.21575 0.00211962
-0.0410222  -0.220262  0.0076234
-0.0468853  -0.216947 0.00675053
 -0.045943  -0.216266 0.00630246
-0.0398775  -0.211367 0.00129204
-0.0341784  -0.223631 0.00727818
-0.0421305  -0.224266  0.0103923
-0.00249795   -0.211558  -0.0109088
-0.00912801   -0.217818 -0.00197017
-0.00602047   -0.211784 -0.00858002
-0.0184589  -0.221323 0.00141841
-0.0261687  -0.235112  0.0136685
-0.0133303  -0.227015 0.00428895
-0.0143276  -0.224517 0.00280408
 -0.015988  -0.225384 0.00365486
-0.0163533  -0.223921 0.00250958
-0.0408022  -0.255509  0.0294364
-0.023854 -0.239502 0.0162245
-0.0168057  -0.236722  0.0123418
-0.0291996  -0.254339  0.0297855
-0.0504819  -0.270899  0.0400873
-0.0466785  -0.259214  0.0318775
-0.0337057  -0.244188  0.0221063
-0.0389622  -0.247116   0.023933
-0.053573 -0.257384 0.0311335
-0.0666799  -0.278114  0.0451631
-0.0797104  -0.302113  0.0558802
-0.0499127  -0.246096  0.0236803
-0.0384241  -0.234426  0.0164549
-0.0336777  -0.236034    0.01702
-0.0420976  -0.243955  0.0219919
-0.0600063  -0.229579  0.0141563
-0.049573 -0.234525 0.0168913
-0.047871 -0.226445 0.0125828
 -0.038536  -0.224951 0.00944664
-0.0321859  -0.223417 0.00659008
-0.0184735  -0.224283   0.003404
-0.0280735  -0.225196 0.00673339
-0.0446818  -0.228535  0.0131185
 -0.12262 -0.420955  0.117758
-0.115991 -0.431617  0.106933
-0.0927747  -0.361685   0.065739
-0.0694871  -0.299954  0.0592071
-0.0792507  -0.310074  0.0617029
-0.0780838  -0.318903  0.0690352
-0.0566308  -0.287515  0.0511164
-0.0629721   -0.30473    0.06247
-0.113379 -0.405179  0.112858
-0.0839921  -0.339067  0.0806964
-0.100057 -0.370379 0.0945546
-0.0907186  -0.333576  0.0722188
-0.0947092  -0.346156  0.0792291
-0.117093 -0.401495  0.107529
-0.155675 -0.506733  0.166281
-0.132282 -0.449848  0.134902
-0.134248 -0.465052  0.117196
-0.159702 -0.505928  0.161756
-0.236502 -0.691353  0.257868
 -0.26382 -0.878986  0.392905
-0.145269 -0.531045  0.162412
-0.162374 -0.620549  0.176159
-0.300517 -0.702348  0.214336
-0.180673 -0.470398  0.124041
-0.225381 -0.520176  0.130239
-0.120179 -0.401654  0.105731
-0.136823 -0.451176  0.134502
-0.142975 -0.465503  0.141735
-0.124677 -0.399743 0.0916077
-0.0779413  -0.339396  0.0466489
-0.115042 -0.383441 0.0937321
-0.103922 -0.349875 0.0748208
-0.0984404  -0.337373   0.069493
-0.103997 -0.351627 0.0763637
-0.102184 -0.344545 0.0735225
-0.105793 -0.359183  0.081507
-0.110193 -0.369889 0.0873484
-0.113856   -0.3589 0.0779903
-0.119765 -0.377827 0.0884202
-0.117096  -0.38942 0.0980901
 -0.0645139   -0.199304 -0.00670903
 -0.0781715   -0.204807 -0.00751611
  -0.10706  -0.246312 0.00690957
 -0.0947667   -0.223144 -0.00272862
   -0.081844    -0.217764 -0.000144398
 -0.0726613   -0.210851 -0.00187693
 -0.0542626     -0.1958 -0.00792367
-0.0590115  -0.208875 0.00120594
-0.0767555  -0.224107 0.00578065
-0.0709155  -0.227741 0.00973465
-0.0612574    -0.2197 0.00760148
-0.0644114  -0.231138  0.0139657
-0.0917726  -0.282405  0.0378711
-0.114847 -0.341169 0.0656372
-0.171434  -0.43153 0.0992046
-0.146086 -0.374135 0.0748035
 -0.10781 -0.270857 0.0220935
-0.117118 -0.291546 0.0315681
-0.120077 -0.308154 0.0415682
 -0.264714  -0.251701 -0.0934053
-0.243099 -0.139847 -0.165719
-0.251641  -0.14329 -0.172337
-0.241924 -0.126165 -0.177113
 -0.227601 -0.0826027   -0.20243
-0.234945 -0.105144 -0.189325
-0.227448 -0.104384 -0.180995
 -0.223449 -0.0892021  -0.191009
 -0.220148 -0.0991104  -0.177529
-0.231479 -0.131308 -0.160033
-0.224607 -0.113843 -0.168629
-0.233496 -0.121846  -0.17132
-0.221486 -0.116511 -0.162607
-0.217622 -0.115119 -0.159608
-0.219346 -0.109107 -0.166707
 -0.215448 -0.0929043  -0.178312
-0.216577 -0.106286 -0.166642
 -0.211046 -0.0937095  -0.172353
 -0.210948 -0.0955997  -0.171064
  -0.19921 -0.0902027  -0.164345
 -0.21002 -0.112894 -0.153987
-0.209275 -0.101636 -0.163781
-0.213918 -0.111391  -0.15907
 -0.21982 -0.119662 -0.157764
 -0.210478 -0.0939074 -0.0968673
 -0.191944 -0.0918814  -0.148116
  -0.18911 -0.0799565  -0.164232
-0.203233 -0.106372 -0.153559
 -0.292513  -0.333306 -0.0606258
 -0.262565  -0.295267 -0.0608098
 -0.271155  -0.295691 -0.0670498
 -0.275955  -0.306616 -0.0638366
 -0.280087  -0.314455 -0.0626658
 -0.300572  -0.337164 -0.0646867
 -0.282541  -0.302687 -0.0720835
 -0.262191  -0.258012 -0.0859946
 -0.270589  -0.270659 -0.0841616
 -0.279842  -0.283942 -0.0829959
 -0.260995  -0.263379 -0.0807917
 -0.269911  -0.283443 -0.0741311
 -0.297147  -0.325291 -0.0694922
-0.273584 -0.317389 -0.055349
 -0.247447   -0.28536 -0.0546933
 -0.256377  -0.293636 -0.0563954
 -0.312774  -0.378048 -0.0488338
 -0.291727   -0.35295 -0.0473851
-0.281571 -0.333231 -0.051456
 -0.266122  -0.321962 -0.0461069
 -0.248506  -0.302284 -0.0445148
 -0.279136  -0.348744 -0.0398662
-0.344559 -0.530077 0.0179765
  -0.27336  -0.360418 -0.0278064
 -0.289302   -0.39666 -0.0184506
 -0.251945  -0.332631 -0.0278124
-0.268243 -0.369873 -0.017629
 -0.253486  -0.345768 -0.0205154
 -0.246185  -0.345435 -0.0149545
 -0.232935  -0.309206 -0.0272627
  -0.23641  -0.304752 -0.0327178
  -0.23029  -0.309364 -0.0257702
 -0.224658  -0.273681 -0.0443353
 -0.219246  -0.276486 -0.0392437
 -0.204552  -0.273658 -0.0314028
  -0.22059  -0.296733 -0.0274694
 -0.226342  -0.296671 -0.0312856
 -0.212534  -0.279655 -0.0331543
 -0.205702  -0.260011 -0.0413446
 -0.227362  -0.288602 -0.0365966
 -0.244065  -0.325053 -0.0262369
 -0.233168  -0.299895 -0.0339975
-0.225698 -0.265122 -0.050913
 -0.231106  -0.264979 -0.0552239
 -0.203565  -0.261659 -0.0389097
 -0.221097  -0.245451 -0.0610285
 -0.228392   -0.24738 -0.0655604
 -0.214426  -0.231531 -0.0658034
  -0.22029  -0.229757 -0.0719142
-0.234295 -0.231192 -0.082514
  -0.21812   -0.20609 -0.0535476
-0.0870649   -0.15257 -0.0500108
-0.0815533  -0.137664 -0.0603649
-0.0747989  -0.124887 -0.0582182
-0.0767265   -0.12011 -0.0726495
-0.0863493   -0.10093 -0.0516573
-0.0863854  -0.109634 -0.0363568
-0.0819674  -0.110173 -0.0833345
  -0.13794 -0.0824645  -0.134888
 -0.128984 -0.0760557  -0.134809
 -0.148629 -0.0691467  -0.150613
 -0.153099 -0.0907473  -0.136472
 -0.147022 -0.0889536  -0.134528
 -0.143497 -0.0753475  -0.143202
-0.0874062  -0.084282  -0.106378
-0.0931383 -0.0868946 -0.0496666
-0.0842939 -0.0936595 -0.0715163
-0.0875085 -0.0830494 -0.0760144
-0.0848793 -0.0798241 -0.0955141
-0.0903727 -0.0825917 -0.0686148
-0.0879614 -0.0867854  -0.104805
-0.0917129 -0.0765056  -0.074971
-0.0809234 -0.0874756  -0.100864
-0.0937057 -0.0667686 -0.0838085
 -0.105009 -0.0737759 -0.0324099
 -0.103537 -0.0779592 -0.0298141
 -0.100803 -0.0825063 -0.0361277
 -0.110816 -0.0716451 -0.0125511
 -0.118494 -0.0444163 -0.0211934
 -0.113295 -0.0518344 -0.0312978
  -0.11205 -0.0459921 -0.0444731
 -0.108943 -0.0578825 -0.0417263
 -0.112877 -0.0596078 -0.0187239
  -0.11657 -0.0422161 -0.0364132
 -0.114663 -0.0433719 -0.0430022
 -0.118418 -0.0312278 -0.0436772
 -0.125757 -0.0275934 -0.0397846
 -0.121463 -0.0323897 -0.0337462
 -0.146471 -0.0272339 -0.0383088
 -0.157405 -0.0280862 -0.0394876
 -0.165098 -0.0278782 -0.0374226
 -0.111673 -0.0191342  -0.098429
 -0.149403 -0.0268056 -0.0467019
 -0.111282 -0.0383471 -0.0630347
  -0.10602 -0.0379924 -0.0834907
  -0.08479 -0.0694338  -0.109316
  -0.10731 -0.0494291 -0.0610118
-0.0835616  -0.064643  -0.119854
-0.0916793 -0.0845718   -0.10846
 -0.103793 -0.0423331 -0.0853705
 -0.106313 -0.0297592 -0.0996397
 -0.106739 -0.0321994 -0.0915574
 -0.127064 -0.0151389  -0.132898
 -0.135889 -0.0159982  -0.128835
 -0.117492 -0.0134551  -0.141461
 -0.130383 -0.0177936  -0.116485
 -0.113669 -0.0173625  -0.171331
 -0.144134 -0.0165507  -0.121654
 -0.155479 -0.0190497  -0.100885
  -0.17542  -0.027859 -0.0382379
 -0.171558 -0.0285282 -0.0360538
 -0.187463 -0.0263984 -0.0412505
 -0.164824 -0.0270399 -0.0487895
 -0.168013 -0.0279946 -0.0401977
 -0.160491 -0.0269041 -0.0490365
 -0.117551 -0.0172332  -0.110856
-0.0952869 -0.0356539  -0.124952
-0.0889007 -0.0675938  -0.120495
-0.0918458 -0.0612458  -0.126768
-0.100598 -0.080722 -0.116192
-0.0909986 -0.0512828  -0.134127
-0.0854165 -0.0573044  -0.126646
-0.0886562 -0.0680807  -0.119705
 -0.122915 -0.0530675  -0.149264
 -0.117801 -0.0742819  -0.130538
 -0.125678 -0.0526901  -0.151288
 -0.113902 -0.0371459  -0.155914
  -0.13906 -0.0320107   -0.17377
 -0.138036 -0.0497101  -0.159858
  -0.13968 -0.0478977   -0.16343
-0.139299 -0.064281 -0.149687
 -0.139168 -0.0454366  -0.163442
 -0.179538 -0.0546895  -0.177536
 -0.170598 -0.0266298  -0.194566
 -0.215984 -0.0688247 -0.0755051
 -0.212987 -0.0708094  -0.081533
 -0.150624 -0.0183382    -0.1903
 -0.194931 -0.0347736  -0.132163
 -0.181937 -0.0220957  -0.165884
-0.151072 -0.010528 -0.160441
 -0.168944 -0.0104905  -0.153015
  -0.170472 -0.00793167   -0.170311
 -0.199801 -0.0179076 -0.0949615
 -0.184744 -0.0188935 -0.0956217
 -0.182114 -0.0120805  -0.137393
 -0.197009 -0.0199999  -0.123388
 -0.207438 -0.0409763 -0.0989521
 -0.213891 -0.0480476 -0.0821826
 -0.217837 -0.0588649 -0.0680919
 -0.218307 -0.0413119 -0.0667765
 -0.220178 -0.0433459 -0.0625995
 -0.220104 -0.0232656 -0.0608957
 -0.214972 -0.0224582 -0.0685931
 -0.213931 -0.0236174 -0.0620822
 -0.208182 -0.0287101 -0.0909566
 -0.213403 -0.0288733 -0.0801011
 -0.210089 -0.0220185 -0.0713942
 -0.159868 -0.0151362  -0.126687
 -0.169279 -0.0166342  -0.110326
 -0.204336 -0.0224951 -0.0663858
 -0.198443 -0.0257471 -0.0487138
  -0.20461 -0.0263257 -0.0452837
 -0.198641 -0.0266503  -0.045172
 -0.211926 -0.0254896 -0.0487901
-0.156925 -0.017328 -0.112137
  -0.138588 -0.00888821   -0.177496
 -0.131803 -0.0191454  -0.179227
 -0.120698 -0.0483839  -0.151856
-0.126828  -0.01119 -0.158909
 -0.129396 -0.0298939  -0.170118
  -0.127808 -0.00837121   -0.183098
 -0.170124  -0.029451 -0.0321856
 -0.173397 -0.0294805 -0.0299002
 -0.181637 -0.0316497 -0.0159306
 -0.167647 -0.0184035  -0.103537
 -0.170829 -0.0303177 -0.0248948
 -0.182325 -0.0224848 -0.0736386
 -0.175651 -0.0171556  -0.106504
 -0.185634 -0.0307954 -0.0204226
 -0.177974 -0.0220402 -0.0736751
 -0.199202 -0.0326186 -0.0110354
  -0.20159 -0.0314564 -0.0176286
 -0.211554 -0.0313063 -0.0172249
  -0.22153 -0.0312714 -0.0150821
 -0.215903 -0.0304035 -0.0224629
 -0.217367 -0.0268462 -0.0437147
 -0.224831  -0.026845 -0.0403224
 -0.223971 -0.0283599 -0.0281223
 -0.206864 -0.0295137 -0.0280939
  -0.21147 -0.0288011 -0.0333533
 -0.214653 -0.0278967 -0.0386058
 -0.200231 -0.0270534  -0.040525
 -0.193358 -0.0289807 -0.0314187
 -0.172617 -0.0291182 -0.0341304
 -0.178115 -0.0295645 -0.0306944
 -0.189091 -0.0288945 -0.0301182
 -0.201025 -0.0315217 -0.0180485
 -0.177857 -0.0284124 -0.0370597
  -0.19458 -0.0307503  -0.021161
 -0.198831 -0.0304201 -0.0223696
 -0.202439 -0.0298513 -0.0213989
   -0.17889 0.000505564   -0.196461
  -0.194213 -0.00444881    -0.15622
 -0.200813 -0.0131544  -0.120506
 -0.165311 0.00838184  -0.224128
-0.140984 0.0654891 -0.285621
 -0.13002  0.059289 -0.271901
-0.166463 0.0340415 -0.257507
-0.179397 0.0263561 -0.221468
 -0.220668  0.0215856 -0.0525942
 -0.222488  0.0109904 -0.0533991
 -0.210677 -0.0126078   -0.10558
-0.144108 0.0155852 -0.223098
  -0.15477 0.00924319   -0.22006
  -0.224752 -0.00259424  -0.0511953
 -0.188136 -0.0134385  -0.129822
 -0.152574 -0.0020632  -0.204469
 -0.161959 -0.0112385  -0.149078
 -0.175159 -0.0143388  -0.126089
  -0.152668 -0.00664602   -0.186589
-0.142253 0.0180287 -0.225526
-0.132839 0.0602481  -0.27447
-0.104946 0.0299467 -0.221716
-0.104652  0.060808 -0.260497
-0.129857 0.0152076 -0.215631
  -0.143116 -0.00870749   -0.178296
 -0.118112 0.00565929  -0.197735
 -0.152898 -0.0130085   -0.13987
 -0.142658 -0.0135991  -0.139605
-0.106017 0.0118322  -0.19955
 -0.135485 -0.0119208  -0.156135
-0.0854925  0.0728141  -0.265549
-0.0872533   0.046305  -0.233263
-0.0852812  0.0630783  -0.252999
-0.0915676  0.0237717  -0.207324
 -0.105508 0.00272911  -0.188281
 -0.130455 -0.0122505  -0.151955
-0.0790938  0.0425222  -0.224554
-0.070128 0.0665977 -0.196524
-0.0607732  0.0605279  -0.237286
  -0.0983597 -0.000701108    -0.180451
-0.0803914  0.0149469  -0.190914
-0.0865461  0.0195661  -0.199608
-0.0653027  0.0519437  -0.229198
-0.0640652  0.0417775  -0.203091
-0.0620011  0.0421588  -0.211911
-0.0740032   0.050303  -0.160356
-0.0808945  0.0157957  -0.141849
-0.0647211  0.0444933  -0.197133
 -0.0969922 -0.00605115   -0.136294
 -0.100174 -0.0115643   -0.15729
-0.0646234  0.0493171  -0.203806
-0.0799373  0.0125634  -0.171048
 -0.114284 -0.0165155  -0.117116
-0.109595  -0.01862 -0.106174
 -0.137618 -0.0302952 -0.0161825
  -0.156263  -0.0325622 -0.00694997
 -0.124735 -0.0285858 -0.0302924
 -0.128081  -0.027716 -0.0366252
  -0.15264 -0.0299457 -0.0211615
 -0.136802 -0.0276941 -0.0364869
 -0.118261 -0.0141532  -0.135998
  -0.105213 -0.00999468   -0.164743
 -0.145363 -0.0302259 -0.0178461
  -0.14458 -0.0231059 -0.0745986
 -0.132937 -0.0121669  -0.150503
  -0.170781  -0.0338345 -0.00315799
 -0.167494 -0.0307164 -0.0209009
 -0.178018 -0.0319768  -0.012437
  -0.184249  -0.0336005 -0.00550771
  -0.174367  -0.0330518 -0.00802067
  -0.17981 -0.0344231 0.00138173
 -0.185445 -0.0363593 0.00693022
  -0.14969 -0.0156785  -0.125855
 -0.176444 -0.0228938  -0.068325
 -0.170506 -0.0230202 -0.0731577
 -0.221651 0.00808579 -0.0489667
 -0.217828  0.0188035 -0.0511258
  -0.21852 0.00453388 -0.0575465
  -0.220602 -0.00458974  -0.0576446
  -0.271854  -0.0329649 -0.00188144
   -0.26727  -0.0344557 0.000669971
 -0.291187 -0.0337383  0.0028059
 -0.306414 -0.0329008 0.00759233
 -0.300788 -0.0331372 0.00378231
  -0.282737  -0.0330436 -0.00132349
   -0.29022  -0.0317261 -0.00510974
 -0.278011 -0.0303533 -0.0108717
  -0.286001  -0.0308569 -0.00982606
  -0.295511  -0.0316877 -0.00304899
   -0.304149   -0.0316262 -0.000696484
 -0.303814 -0.0292714 -0.0110366
 -0.281178 -0.0290113 -0.0150658
  -0.229514 -0.00561215   -0.130634
 -0.216944  -0.013407 -0.0982976
 -0.237836 -0.0167336 -0.0758234
 -0.17573  0.017864 -0.241865
-0.188615 0.0298226  -0.18529
 -0.195827 0.00056769  -0.173106
 -0.225373 -0.0180066  -0.073172
-0.209668 0.0105557 -0.107075
-0.214328 0.0156859 -0.077304
  -0.215019 -0.00845068  -0.0902796
-0.197753 0.0116041 -0.149463
 -0.208038 0.00428189   -0.18186
-0.194957 0.0149625 -0.231151
-0.202113  0.015511 -0.228609
 -0.239409 0.00979307  -0.186394
   -0.27865 -0.00353836   -0.113862
  -0.295573 -0.00927745   -0.083769
  -0.273267 -0.00620267   -0.107396
 -0.253244 0.00415787  -0.156238
 -0.291098 -0.0148853 -0.0642997
  -0.29754 -0.0162708 -0.0567009
  -0.29395 -0.0123661 -0.0721355
 -0.285514 -0.0102877 -0.0848275
 -0.288544 -0.0168664 -0.0580383
 -0.283779 -0.0202021 -0.0462447
 -0.290583 -0.0167128 -0.0567275
 -0.276035 -0.0196936 -0.0506904
 -0.280281 -0.0225914 -0.0374613
 -0.274695 -0.0217348 -0.0430623
 -0.233743  -0.018623 -0.0681709
 -0.302022 -0.0217343  -0.033871
  -0.26931 -0.0189851 -0.0562381
 -0.273249 -0.0171778 -0.0602212
 -0.243373 -0.0097486  -0.105337
 -0.267262 -0.0150726 -0.0709712
 -0.265244 -0.0169901 -0.0659423
  -0.229385 -0.00730553   -0.123233
 -0.259343 -0.0165351 -0.0707293
 -0.266503 -0.0195551 -0.0546908
 -0.260487 -0.0192721 -0.0572102
 -0.252323 -0.0192459 -0.0591145
 -0.243599 -0.0162311 -0.0771943
 -0.211396 -0.0135969  -0.101483
 -0.239818 -0.0145311 -0.0873506
 -0.218183 -0.0117589  -0.105279
  -0.198602 -0.00766761   -0.139521
 -0.230331 -0.0129587 -0.0942125
 -0.245987 -0.0136379 -0.0889882
 -0.274032 -0.0146815 -0.0717662
  -0.216276 -0.00287953   -0.147029
  -0.239629 -0.00468121   -0.129233
 -0.253721 -0.0115611 -0.0931201
  -0.239388 -0.00691586   -0.121078
 -0.212838 0.00454418  -0.179966
-0.195154 0.0041148 -0.188816
 -0.213436 0.00674587  -0.188159
