 0.291758 0.0592369 0.0568867
 0.290763 0.0585719 0.0575246
  0.29503 0.0508139 0.0593791
  0.38278   0.04822 0.0195593
 0.376688 0.0516421 0.0175761
 0.289449 0.0695382 0.0531729
  0.29113 0.0648642 0.0485333
 0.375928 0.0487872  0.023105
 0.376444 0.0499293 0.0304499
 0.361355 0.0528789 0.0304895
 0.374684 0.0474102 0.0316317
 0.360259 0.0621859 0.0187238
 0.356892 0.0565613 0.0225394
 0.365101 0.0620773 0.0155511
 0.377547 0.0564131 0.0227207
   0.3937 0.0512587  0.026719
0.402129 0.060035 0.015089
 0.404183 0.0614839 0.0124858
 0.403722 0.0626553  0.013573
 0.383412 0.0364894 0.0442607
 0.405102 0.0599256 0.0117126
 0.375541 0.0523731 0.0181838
 0.383401 0.0528291  0.025768
 0.379668 0.0421552 0.0378781
 0.292412 0.0705169 0.0515384
 0.292281 0.0655854 0.0407793
 0.358572 0.0365942 0.0395846
 0.350943 0.0497287 0.0310208
 0.297232 0.0710282 0.0331793
 0.349373  0.048538 0.0302678
 0.291333  0.068312 0.0359245
  0.29253 0.0680913 0.0523365
 0.292537 0.0678471 0.0523209
 0.285391 0.0733006 0.0392937
 0.283268 0.0762402 0.0406798
 0.289991 0.0676218 0.0537204
 0.290144 0.0676091 0.0443293
 0.291235 0.0685856 0.0380855
 0.285908 0.0703995 0.0426761
 0.286212 0.0725381 0.0349315
 0.284475 0.0703254 0.0379319
 0.284499 0.0740987 0.0541361
 0.278632    0.0786 0.0188707
 0.284099 0.0727498 0.0361655
 0.290628 0.0665674  0.027182
 0.292125 0.0635142 0.0432687
 0.292713 0.0664286 0.0527999
 0.292543 0.0696091  0.027986
 0.310727 0.0642258 0.0482264
 0.289442  0.066517 0.0230919
 0.305591 0.0617485 0.0510814
 0.329707 0.0565076 0.0224162
 0.308542 0.0411661 0.0588054
  0.290432  0.0650375 0.00722955
 0.291672 0.0612618 0.0259253
 0.295828 0.0454535 0.0318511
 0.301232 0.0477191 0.0581743
  0.29842 0.0262288 0.0316414
 0.293748 0.0330247 0.0372073
 0.291091 0.0290479 0.0278961
 0.297864 0.0378447 0.0540795
 0.293801 0.0356467 0.0440392
 0.292549   0.03061 0.0297899
  0.29191  0.026847 0.0248592
 0.292642 0.0339532 0.0376421
  0.29387 0.0326331 0.0337409
0.296843 0.048511 0.050289
 0.288448 0.0368101 0.0372041
 0.289679 0.0358242 0.0370726
 0.291899 0.0575914   0.01093
 0.293883  0.052905 0.0283334
  0.29499 0.0509977 0.0515563
 0.293621 0.0457318 0.0414258
 0.296895 0.0431443 0.0616086
  0.37241 0.0408073 0.0412576
 0.368072 0.0382861 0.0447384
 0.387737 0.0281557 0.0455913
 0.386332 0.0349118 0.0397582
 0.397933 0.0369801 0.0208027
  0.408247  0.0346698 0.00474038
  0.406913  0.0278721 0.00709061
   0.40296  0.0184086 0.00988701
   0.407868   0.0193478 -0.00387999
  0.408153  0.0219273 0.00061448
 0.382605  0.028119 0.0498201
 0.360654 0.0416827 0.0228969
  0.37054 0.0248896 0.0583101
 0.394858  0.024581 0.0349517
 0.351773 0.0532464 0.0163782
 0.344223 0.0363426 0.0441522
 0.328934 0.0668861 0.0126164
 0.328321 0.0660768 0.0146479
 0.329145 0.0605951 0.0250317
 0.330547 0.0566649 0.0283684
 0.338364 0.0524521 0.0261637
 0.349419 0.0513913  0.023286
 0.349421 0.0519891 0.0227839
 0.347714 0.0558321 0.0144844
 0.346982 0.0527471 0.0241156
 0.327546 0.0593869 0.0299871
 0.345438 0.0373914 0.0478877
 0.348495 0.0468209 0.0321448
 0.347639 0.0463107 0.0320142
  0.414797  0.0554766 -0.0113157
 0.420566 0.0398997 0.0134177
 0.458828 0.0279949 0.0273579
   0.459939   0.0375243 -0.00283738
   0.404677    0.037468 0.000857639
 0.455419 0.0165496 0.0473898
  0.416561  0.0515747 -0.0148527
   0.463692   0.0378784 0.000451106
   0.469528   0.0379486 -0.00533221
  0.459219  0.0387176 -0.0109583
   0.411513    0.046797 -0.00799736
   0.463579   0.0378844 -0.00274718
 0.401632 0.0299618 0.0129972
0.410179 0.030263 0.001258
  0.413663  0.0368416 -0.0025872
   0.454638   0.0295008 -0.00640181
  0.469429  0.0147377 0.00509067
   0.416911   0.0308648 -0.00202687
   0.461938   0.0401052 -0.00694706
  0.447262  0.0281414 0.00354975
   0.487332   0.0247422 -0.00825539
 0.470908 0.0275345  0.034152
  0.487731  0.0291824 0.00670064
   0.487021    0.028975 -0.00655374
   0.485918   0.0194538 -0.00548745
    0.502742 -0.000231037    0.0767139
   0.473977   0.0383137 -0.00799525
   0.469099   0.0400905 -0.00889494
  0.514393 0.00365123  0.0425308
  0.515133 0.00155418  0.0780838
 0.495737 0.0082081 0.0676739
  0.506072 0.00335131  0.0562286
 0.493128 0.0177952 0.0392763
  0.51716 0.0106231 0.0736788
 0.496185 0.0215247 0.0530179
  0.49294 0.0250948 0.0455459
 0.494152 0.0108536 0.0572902
 0.528905 0.0213009 0.0626468
 0.501219  0.018969 0.0659236
 0.511664  0.051769 0.0212242
 0.513055 0.0580133 0.0129912
  0.50983 0.0569616  0.014947
  0.50678 0.0368501 0.0458321
 0.493123 0.0441917 0.0302652
 0.501857 0.0354466 0.0450168
  0.50976 0.0491443   0.02615
   0.418734   0.0676587 -0.00451782
  0.411455  0.0617485 0.00192093
    0.416492    0.0623815 -0.000168816
  0.491137 0.00580579  0.0780654
  0.49814 0.0302376 0.0519507
 0.460562  0.044629 0.0261046
  0.419367  0.0519242 0.00795561
 0.393945 0.0321389 0.0644867
 0.390373 0.0334629 0.0375627
 0.466345 0.0358591  0.043633
 0.474743 0.0136277 0.0763211
  0.48508 0.0078215 0.0779713
 0.499437 0.0296064 0.0567942
 0.502399 0.0298486 0.0564402
 0.507443 0.0328863 0.0486825
 0.497565 0.0245869 0.0623064
  0.49938 0.0258936 0.0598614
 0.503321 0.0267347 0.0582493
 0.499312 0.0333582 0.0524123
 0.488795 0.0107398 0.0778941
 0.469699 0.0266828 0.0586262
 0.462294 0.0444428 0.0269052
 0.460713 0.0422756 0.0269022
 0.509921 0.0493861 0.0292178
  0.497071 0.00651383  0.0770811
 0.500847   0.03218 0.0493126
 0.466594 0.0145752 0.0612836
 0.459651 0.0434464 0.0275705
0.409536 0.050116  0.01576
 0.439568 0.0291442 0.0341999
  0.412065  0.0577956 0.00147392
 0.457988 0.0287078 0.0393882
 0.460429 0.0206062 0.0484359
 0.453124  0.037184 0.0221421
  0.46214 0.0240709 0.0471764
   0.414027   0.0562243 -0.00468974
 0.428067 0.0416536 0.0267831
 0.423677 0.0238952 0.0285091
  0.413993   0.058647 -0.0101187
  0.415625  0.0314049 0.00696658
 0.449884 0.0200802  0.036157
 0.488686 0.0184549 0.0518791
 0.471331 0.0258953 0.0286486
 0.491077 0.0367667  0.031509
 0.510199 0.0469596 0.0336437
 0.495483 0.0351989 0.0389135
 0.506292 0.0376082  0.044666
 0.505776 0.0335383 0.0512797
 0.508745 0.0230452 0.0618653
  0.487479  0.0154294 0.00539102
 0.463277 0.0114255 0.0206095
   0.477098 -0.00308864   0.0771036
  0.460754 0.00582459  0.0712059
  0.461379 0.00688847  0.0532603
  0.455159  0.0164837 0.00762591
  0.452676  0.0130354 0.00432494
 0.396548  0.015598 0.0506302
   0.425248 -0.00246064   0.0724704
 0.404956 0.0205726  0.035435
 0.401733 0.0230856  0.023929
 0.403018 0.0154469  0.037511
  0.415051 0.00727248  0.0685708
  0.453805  0.0219923 0.00776597
  0.482608 0.00729066   0.031524
 0.455067 0.0131822 0.0217704
  0.454665 -0.0546566  0.0767209
  0.450586 -0.0425422  0.0773619
  0.436281 -0.0258791 -0.0222516
  0.440089 -0.0494554  0.0770369
  0.438055 -0.0655189 -0.0303084
  0.438578 -0.0504286  0.0772055
  0.430748 -0.0122362  0.0736906
   0.424904 -0.00932434   0.0733262
  0.440533 -0.0177642  0.0746061
  0.440448 -0.0434682  0.0770358
  0.434005 -0.0692427  -0.002814
   0.43811 -0.0407684  0.0507164
   0.432419  -0.0599683 -0.00147138
  0.437146 -0.0362738  0.0413019
  0.441692 -0.0188542  0.0228094
  0.437866 -0.0359851  0.0453208
  0.440947 -0.0369782  0.0393099
  0.449293 -0.0450145  0.0769769
  0.448711 -0.0204125  0.0757379
   0.460693 -0.00655457   0.0755078
  0.467135 -0.0271442   0.077531
  0.464542 -0.0623127  0.0759777
  0.452606 -0.0342624  0.0770059
   0.46714 -0.0683882  0.0433155
  0.442627 -0.0218871  0.0527832
   0.47725 -0.0373707  0.0759939
  0.480287 -0.0239656  0.0764188
  0.463612 -0.0208306  0.0768582
 0.449933 -0.019636 0.0756214
   0.481584 -0.00559657   0.0772063
  0.487522 0.00937562   0.021261
   0.483471   0.0193645 -0.00808265
  0.482622 0.00797212  0.0163445
  0.453957  0.0129594 0.00152255
  0.441116 -0.0224787  0.0420609
  0.443008 -0.0056421  0.0101597
   0.448633  0.00618147 -0.00237582
  0.450967 -0.0127406  0.0749431
   0.44011 -0.0460208  0.0431897
 0.443088 -0.043194 0.0769082
   0.43848 -0.0306943 -0.0116992
  0.473033 -0.0562388  0.0753342
  0.469656 -0.0678728  0.0424576
  0.476618 -0.0661292  0.0584707
  0.480326 -0.0480009  0.0753146
 0.482851 -0.049591 0.0748739
  0.483068 -0.0537146  0.0743669
  0.475755 -0.0652018  0.0597925
  0.472978 -0.0661364  0.0498475
  0.405505  0.0161492 0.00309376
   0.48934 0.00262812  0.0239581
    0.48594 -0.00390155   0.0245873
  0.482163  0.0105795 0.00079577
  0.487358 0.00781986  0.0129461
  0.506971  0.0197596 0.00241337
  0.496007 0.00999385  0.0359714
  0.483199  0.0195794 -0.0214552
  0.505706 -0.0120101  0.0748342
  0.488444 -0.0477214  0.0749261
  0.476859 -0.0463716  0.0753458
  0.496836 -0.0339373  0.0750854
  0.509741 -0.0512255  0.0734768
  0.493554 -0.0661547 -0.0196247
  0.510901 -0.0525056  0.0734671
  0.513341 -0.0530895  0.0733911
  0.512733 -0.0616604  0.0354372
  0.504053 -0.0465161  0.0240963
 0.516857 -0.054823 0.0731429
  0.535161 -0.0256768  0.0744019
  0.546204 -0.0281794   0.074423
   0.52646 -0.0188113  0.0746366
  0.508619 -0.0265353  0.0742018
   0.525934 -0.00860357   0.0453857
  0.527507 -0.0173471  0.0747139
  0.510821 -0.0355665  0.0738345
  0.530744 -0.0261186  0.0744521
  0.533943 -0.0255472  0.0744708
 0.509344 -0.034161 0.0738484
 0.527014 -0.014853 0.0759116
   0.489895   -0.011102 -0.00593547
  0.507385 -0.0109177  0.0749828
   0.50504 -0.0183616  0.0748226
  0.507723 -0.0104329  0.0749475
   0.37559 -0.0160746  0.0695888
  0.506714 -0.0138613  0.0748799
  0.513887 -0.0186023  0.0742407
  0.505475 -0.0170043  0.0748956
  0.508371 -0.0229055  0.0744296
  0.511487 -0.0189616  0.0747652
  0.508569 -0.0123757  0.0748449
  0.512356 -0.0258165  0.0744215
  0.510934 -0.0206746  0.0744761
  0.512483 -0.0255552  0.0740914
  0.511793 -0.0258681  0.0741493
  0.493237 -0.0648756 -0.0137021
  0.492277 -0.0658415 -0.0209216
  0.500607 -0.0616145  0.0401352
  0.506238 -0.0228133  0.0744033
  0.511658 -0.0298913  0.0743296
  0.514789 -0.0440953  0.0737299
  0.514365 -0.0559981   0.073089
  0.502015 -0.0534491  0.0737588
  0.503806 -0.0387958  0.0743241
  0.359465 -0.0457503 0.00159028
  0.361481 -0.0547707  0.0063844
  0.344946 -0.0611624  0.0719046
  0.361057 -0.0271702  0.0263609
  0.356658 -0.0428331  0.0198441
 0.356678  -0.03272 0.0398194
   0.375557 -0.00992447   0.0691577
  0.36719 -0.011466 0.0689571
   0.36063 -0.0185216  0.0703507
  0.312786 -0.0398421  0.0181104
  0.313917 -0.0317303  0.0174699
   0.336873 -0.00239246   0.0649072
  0.331134 0.00954396  0.0491329
 0.325492 0.0110217 0.0425496
   0.307271  -0.0519513 0.000784805
  0.291515 -0.0572169 -0.0348706
  0.340592 -0.0668929  0.0718239
  0.352515 -0.0642822  0.0266863
  0.299383  -0.103484 0.00832303
  0.269813 -0.0808525 -0.0248167
  0.271659 -0.0839807 -0.0233807
 0.275722 -0.134514 0.0405504
  0.294655 -0.0568425 -0.0355944
  0.300249 -0.0584331 -0.0324814
  0.297109  -0.058443 -0.0385227
    0.338317 -0.000203919    0.0637571
  0.335692 -0.0126837   0.057223
 0.327038 0.0096295 0.0377043
  0.325435 -0.0195048  0.0289508
  0.321807 -0.0526236  0.0396125
  0.329069 -0.0535207  0.0371658
  0.347193 -0.0229695  0.0703632
  0.348913 -0.0346702  0.0528899
    0.3617 -0.0115206  0.0203583
  0.335409 -0.0525731  0.0725781
  0.340845 -0.0587935  0.0502094
  0.355883 -0.0433196  0.0272717
  0.328387 -0.0631228  0.0616763
 0.315325 -0.105253 0.0627361
  0.337293   -0.04377 0.00922295
  0.317899 -0.0661348  0.0240697
  0.308274 -0.0658981 -0.0252609
  0.317866 -0.0787981 0.00925468
  0.315084 -0.0700369 0.00659883
  0.306015 -0.0633911 -0.0283539
  0.316331  -0.075269 0.00283576
  0.331091 -0.0517956  0.0186088
  0.330816 -0.0431971 0.00459352
   0.333811  -0.0403737 -0.00202039
  0.335499 -0.0146166   0.038971
  0.333054 -0.0336539   0.010428
   0.336724 -0.00906631    0.055244
  0.333868 -0.0279324  0.0240547
  0.334079 -0.0251031  0.0350575
  0.308049 -0.0651117 -0.0231981
  0.306973 -0.0659638 -0.0285097
  0.338359 0.00494475  0.0556005
  0.334985 -0.0140289  0.0541907
  0.304033 -0.0610499 -0.0291537
  0.338083 0.00868707  0.0562374
  0.325037 0.00816901  0.0288362
  0.326282 0.00787605  0.0253066
  0.304848 -0.0628672 -0.0302835
  0.300693 -0.0594492 -0.0342522
 0.271645 -0.134973 0.0403559
  0.276151 -0.0888587 -0.0304687
  0.289492 -0.0966644 -0.0197258
 0.306952 -0.066123 -0.028544
  0.296141 -0.0919982 -0.0187409
  0.275111  -0.084864 -0.0318198
 0.279558 -0.137177 0.0382233
  0.277621 -0.0812343 -0.0387427
 0.261147 -0.142208 0.0343575
  0.312233 -0.0740402 -0.0155914
  0.277364  -0.104714 -0.0214956
  0.312253 -0.0724149 -0.0383101
 0.266144 -0.141095 0.0354407
 0.276786 -0.139929 0.0357786
  0.310075 -0.0693573 -0.0239371
  0.308946 -0.0688374 -0.0266199
  0.328993 0.00867908  0.0305871
  0.332622 0.00807503  0.0326993
  0.336156 0.00606179  0.0345573
  0.330509 -0.0137139 0.00616573
  0.311239 -0.0697954 -0.0308179
  0.313979 -0.0714424 -0.0353473
  0.316382 -0.0743192 -0.0368545
  0.332169 -0.0108576   0.017909
   0.328766   -0.012139 0.000747757
  0.334983 0.00177471  0.0281007
    0.33375 0.000109449   0.0181895
   0.331935 -0.00459469   0.0147946
   0.33248 -0.0148514  0.0138932
   0.334782 -0.00792549   0.0423151
  0.320593 -0.0708061 -0.0325554
  0.317473 -0.0736166 -0.0233156
  0.315502 -0.0715696 -0.0244342
  0.318622 -0.0749566 -0.0235652
    0.3208 -0.0796163 -0.0244428
  0.321515 -0.0733769 -0.0284529
  0.319892 -0.0781868 -0.0256131
  0.318796  -0.078479 -0.0354393
  0.318513 -0.0760913 -0.0289921
  0.320317 -0.0791753  -0.028719
  0.321104 -0.0801657 -0.0220627
  0.320851 -0.0793847 -0.0207509
  0.333529 -0.0381025 0.00576212
   0.33516 -0.0275822  0.0149468
  0.332946 -0.0178401  0.0704861
   0.32673 -0.0760708 -0.0282226
  0.332705 -0.0180484  0.0246781
   0.345669 -0.00879521    0.063323
  0.346759 -0.0113246  0.0453022
  0.349795 -0.0166251  0.0470479
  0.347435 -0.0160182  0.0416418
  0.336485 -0.0198151  0.0645929
  0.346571 -0.0246184  0.0708139
   0.52641 -0.0218549  0.0744648
  0.351197 -0.0273131   0.053105
  0.319594 -0.0754186  0.0316986
   0.319556  -0.0820576 0.000709125
  0.319258 -0.0785536 -0.0164867
   0.350967 -0.00954608   0.0406705
  0.361277 -0.0181498  0.0162263
   0.342445 -0.00672706   0.0653197
   0.35101 -0.0043226  0.0265359
   0.350748 -0.00685066   0.0355418
   0.350806 -0.00486042   0.0197321
   0.353435 -0.00527103   0.0184792
   0.347489 -0.00431116   0.0465654
   0.352692 -0.00677039   0.0406471
   0.53031 -0.0230096  0.0746395
   0.550725 -0.00463983   0.0573509
  0.547581 -0.0105235   0.075432
  0.531959 -0.0151958   0.075057
  0.543309 -0.0156103  0.0750134
  0.547848 -0.0184561  0.0749385
  0.344703 0.00096192  0.0237715
   0.345467 -0.00134601   0.0422115
   0.343254 4.40408e-05   0.0542723
  0.345338 0.00111115   0.046309
   0.346251 0.000383336   0.0326435
  0.344692 0.00335433  0.0186831
  0.340383 0.00505527  0.0338428
 0.340793 0.0043926 0.0351587
  0.336706 0.00711976  0.0409856
  0.336433 0.00726625   0.036427
  0.336315 0.00699671  0.0386535
  0.337508 0.00347601  0.0247958
   0.333197 -0.00629099   0.0377062
  0.338695 0.00401646  0.0619682
  0.341214 0.00469266   0.032953
   0.330747 -0.00567325  0.00814995
   0.331797 -0.00276147   0.0226923
  0.332639 -0.0190284   0.010835
 0.333436 0.0027722 0.0261134
  0.335587 0.00716904   0.034074
   0.33608 0.00378198  0.0261943
  0.336665 0.00852158  0.0198169
 0.337296 0.0084608 0.0226699
   0.33799 0.00988002  0.0179296
  0.337201 0.00647512  0.0128723
  0.337194 0.00833627  0.0188566
 0.339689 0.0127372 0.0144443
 0.341012 0.0142936 0.0101777
 0.343499 0.0155636 0.0233921
  0.338569 0.00948371  0.0374982
  0.337532 0.00853477  0.0229549
  0.337276 0.00769723  0.0290366
 0.342358 0.0076164 0.0239132
0.339695  0.01144 0.022687
 0.344686 0.0178366  0.019321
  0.344305 0.00896048  0.0219351
  0.339964 0.00730765  0.0387074
 0.343271 0.0058568 0.0195672
  0.339241 0.00913344  0.0374579
  0.344467  0.0188794 0.00378315
 0.339897 0.0152992 0.0280779
  0.34734 0.0127262 0.0355626
 0.340788 0.0156652  0.056377
 0.340382 0.0134869 0.0547721
 0.343092 0.0081404 0.0605691
    0.347205 -0.000760436    0.0636603
 0.340717 0.0139202 0.0579453
 0.346857 0.0150519 0.0315969
 0.346942 0.0188013 0.0286923
 0.341677 0.0160693 0.0486126
  0.340801 0.00902571  0.0596815
   0.348205 -0.00502972   0.0324301
  0.343203 0.00236557  0.0307397
  0.343607 0.00374809  0.0284121
  0.347443  0.0026375 0.00733073
   0.350534 -0.00242815    0.008485
 0.339194 0.0121466 0.0479582
 0.342508 0.0179816 0.0392285
 0.342816 0.0193471 0.0318653
  0.339517 0.00891858  0.0350624
  0.34508 0.0127129 0.0339221
 0.346485 0.0355051 0.0351592
 0.343562 0.0418507 0.0314395
  0.34475 0.0378441 0.0395177
 0.343952 0.0425761  0.027246
 0.345201 0.0319766 0.0391451
 0.344137  0.035637 0.0430689
 0.342639 0.0369143 0.0418867
 0.340901  0.040772 0.0372812
 0.339232 0.0436345 0.0367427
 0.338238 0.0466341 0.0284341
  0.34809 0.0449896 0.0228966
 0.346344 0.0389055  0.035756
 0.348081  0.038951 0.0284926
 0.343676 0.0296019 0.0518292
 0.352459 0.0371103 0.0200277
 0.351013 0.0403355 0.0226243
 0.345822    0.0302 0.0443544
 0.345998 0.0281412 0.0359095
 0.344549 0.0248831 0.0333983
 0.349452  0.027347 0.0199694
 0.345504 0.0271345 0.0341739
 0.350217 0.0332158 0.0215379
 0.347665 0.0309441 0.0264275
 0.346576  0.028726 0.0277705
 0.346412 0.0270987 0.0206995
 0.349836 0.0270675  0.016343
 0.348272 0.0235655 0.0217669
 0.342595 0.0198365 0.0359996
 0.343997 0.0201204 0.0210318
   0.3455 0.0212886   0.02797
0.349204  0.02889 0.020514
 0.347621 0.0304984 0.0262184
 0.345236 0.0311611 0.0264684
 0.345484 0.0295048 0.0333467
 0.346484  0.027896 0.0298589
 0.344643 0.0192491 0.0228796
0.343697 0.018741 0.025261
  0.342375  0.0170107 0.00399105
 0.344683 0.0197357 0.0296542
 0.343338 0.0172137 0.0273103
 0.345115 0.0319095 0.0233667
 0.344766 0.0289988 0.0351544
 0.344132 0.0239365  0.034469
 0.342885 0.0222928 0.0416477
0.339571 0.010989 0.045449
 0.341327 0.0208688 0.0493529
 0.344196 0.0257536 0.0350574
 0.344685 0.0265171  0.034075
 0.340463 0.0107012 0.0276631
  0.336159  0.0107673 0.00491984
 0.336447 0.0086504 0.0182996
  0.335904 0.00865492  0.0190571
 0.338953 0.0120297 0.0236622
  0.331687 0.00866117 0.00135023
 0.336211 0.0102492 0.0115398
  0.334518 0.00755574   0.027855
  0.334753 0.00779496  0.0222199
  0.334401 0.00819471   0.016047
  0.332093 0.00875127 0.00770733
  0.331209 0.00764872 0.00424898
  0.333714 0.00742367   0.024893
  0.333468 0.00802746 0.00720071
  0.333355 0.00823043 0.00832961
  0.331374 0.00826812 0.00102963
  0.333001 0.00774761   0.010912
  0.332782 0.00737168  0.0152762
  0.333696 0.00789761  0.0193743
  0.332278 0.00702031   0.012124
  0.331717  0.0071999 0.00784344
  0.332203 0.00800101  0.0283245
  0.330126 0.00862467  0.0270682
  0.324818 0.00634865  0.0182554
  0.330647 0.00759378  0.0280012
  0.330759 0.00699441  0.0221754
  0.332969 0.00753913  0.0232507
  0.331996 0.00638851  0.0178965
   0.32865 0.00671109  0.0200963
  0.333338 0.00665535  0.0292823
 0.335169  0.008342 0.0410902
  0.335748 0.00731654  0.0301051
  0.333025 0.00752111 0.00870289
  0.334806 0.00915976  0.0551564
 0.340118 0.0194684 0.0562926
 0.341213 0.0198952  0.047724
  0.329366 0.00745583  0.0264095
  0.320695  0.0101084 0.00706781
  0.322249 0.00885351  0.0161029
  0.321901 0.00965216  0.0322191
 0.321775 0.0142175  0.021365
 0.326947 0.0111151 0.0460936
  0.323996 0.00815622  0.0250403
 0.326398 0.0084541  0.027024
 0.326716 0.0117454 0.0519625
 0.329853 0.0159958 0.0605743
 0.327264 0.0274825 0.0567654
 0.326063 0.0106772 0.0391679
 0.320887 0.0149647 0.0231164
 0.321477 0.0123156 0.0453903
 0.315666 0.0109855 0.0181091
 0.317725 0.0109766 0.0243305
  0.317071 0.00959619  0.0163725
 0.320795 0.0106346 0.0292558
  0.321529 0.00878103  0.0222552
  0.324856 0.00798377  0.0234852
  0.324768 0.00803641  0.0200601
  0.325205 0.00843811  0.0291686
  0.321818 0.00629216  0.0151173
  0.32563 0.0081986 0.0309079
 0.328687 0.0316194 0.0548745
 0.328577 0.0234386 0.0581913
  0.338034 0.00950014  0.0558435
  0.337287 0.00914707  0.0597998
 0.331785  0.009221 0.0474951
 0.338751 0.0251974 0.0546253
 0.340408  0.029846 0.0526498
 0.339158 0.0174037 0.0571929
 0.343118 0.0238307 0.0392387
 0.340598 0.0307847 0.0521971
 0.341471 0.0325594 0.0512672
  0.33875 0.0391557 0.0441873
 0.336639 0.0391026 0.0468268
 0.337041 0.0365262 0.0503913
 0.339571 0.0293386 0.0529039
 0.343543 0.0305009 0.0483311
 0.337778 0.0405919 0.0437506
 0.336738 0.0412166 0.0427653
 0.336373 0.0462018 0.0307697
 0.336706 0.0446114 0.0372385
 0.336961  0.045699 0.0305537
 0.335088 0.0444649 0.0364777
  0.34643 0.0440043 0.0298144
 0.335642 0.0532065 0.0211868
 0.331994 0.0602648 0.0204745
 0.338689 0.0450249 0.0355575
 0.348023 0.0454366 0.0217908
 0.349494 0.0416106 0.0266347
 0.325589 0.0488413  0.031041
 0.334001 0.0462875 0.0398719
 0.333092 0.0549085 0.0216746
 0.345607 0.0401219 0.0361166
 0.347137 0.0366048 0.0362289
 0.326525 0.0412606  0.051862
 0.330514 0.0312475 0.0546271
 0.327147 0.0111032 0.0525748
   0.3305 0.0262416 0.0563776
 0.325124  0.028402 0.0573491
 0.326162 0.0390758 0.0531154
 0.303498 0.0168448 0.0263618
 0.298307 0.0201868 0.0190975
   0.3164 0.0132009  0.038977
 0.322437 0.0102524 0.0312492
 0.312382 0.0126343 0.0297655
 0.319559  0.010895 0.0304609
 0.296068 0.0166138 0.0158435
 0.297295 0.0199215 0.0204741
 0.295432 0.0210746  0.015635
 0.306651 0.0156892 0.0298796
  0.31526 0.0130287 0.0376156
 0.316144 0.0185351 0.0493547
 0.329112 0.0139056 0.0600183
  0.31314 0.0151344 0.0320166
 0.303304 0.0262222 0.0405007
 0.303002 0.0305608 0.0513262
 0.316861 0.0311364 0.0590466
0.296636 0.039904 0.032601
 0.297384 0.0278808  0.026127
 0.296003 0.0223133 0.0187661
 0.299924 0.0285902 0.0376521
 0.298168 0.0320603 0.0439317
 0.301818 0.0350193 0.0564067
 0.297938 0.0311428 0.0394984
 0.296269 0.0461866 0.0486749
 0.299665 0.0410514 0.0610595
 0.292064 0.0299512 0.0131416
 0.291279 0.0273958 0.0217899
0.296111  0.02345 0.023393
 0.296128 0.0198228 0.0124912
 0.296329 0.0210699 0.0203551
  0.31016 0.0146689 0.0205985
  0.29719 0.0275495 0.0327818
  0.303639  0.0144044 0.00927733
 0.294898 0.0302294 0.0302346
 0.293047 0.0282541 0.0277493
 0.296024 0.0301244 0.0317285
 0.313839 0.0347879 0.0591508
 0.312192 0.0401787  0.057782
 0.310125 0.0362125 0.0599553
 0.344396  0.036663 0.0440181
 0.345417 0.0438819 0.0232596
 0.330008 0.0583326 0.0241658
 0.349286 0.0507521 0.0233141
 0.344036 0.0476442 0.0308635
 0.330338 0.0617386 0.0181426
 0.330783 0.0561101 0.0282047
 0.348069 0.0464271 0.0219685
  0.336062  0.0649706 0.00583182
  0.33006 0.0607493 0.0154157
  0.329548  0.0668529 0.00913723
 0.328349 0.0640014 0.0119504
 0.331023 0.0574896 0.0237069
 0.355171 0.0390312 0.0291475
 0.376199 0.0279847 0.0547004
  0.403244  0.0171063 0.00555205
 0.375016 0.0189877 0.0604113
 0.353676 0.0316964  0.052717
  0.37576 0.0283111 0.0546071
 0.361835 0.0421048 0.0120414
 0.355895 0.0385623 0.0287953
  0.361925  0.0442246 0.00614309
 0.353177  0.036363 0.0260237
 0.341639 0.0190911 0.0507965
 0.357988 0.0170246 0.0592846
 0.347259 0.0147491 0.0586335
  0.342747 0.00867371  0.0601655
  0.341927 0.00650369  0.0608103
   0.402067   0.0103052 -0.00420625
    0.360803 -0.000351183    0.0653505
  0.343715 0.00781349  0.0609441
 0.389757 0.0148486 0.0131465
  0.361041 0.00576536  0.0635948
   0.407393   0.0185928 -0.00374117
  0.40865 0.0182418 -0.008001
   0.404954   0.0113343 -0.00850524
    0.40659     0.01597 0.000206007
  0.404097 0.00740104 -0.0143226
  0.508521 -0.0110111  0.0754269
   0.406857   0.0154004 -0.00219239
 0.491205 0.0040966 0.0137744
  0.489237 0.00258074  0.0197276
   0.489216 0.000786491   0.0142824
   0.493564 -0.00275838   0.0277096
  0.533195 -0.0106084  0.0754834
   0.543653 -0.00447503   0.0484739
   0.531157 -0.00553598   0.0443686
   0.491838 0.000820681   0.0227935
   0.513051 -0.00531391    0.049623
  0.528045 0.00203277  0.0495796
  0.484807 0.00885957 -0.0146476
  0.503886 -0.0027354  0.0761982
  0.520945 0.00420432  0.0402361
   0.51164 0.00554772  0.0370428
  0.510468 0.00467314  0.0382957
 0.515245 0.0038607 0.0418729
  0.514486 0.00782913  0.0323849
   0.482922   0.0103493 -0.00396474
   0.48453  0.0183154 -0.0174173
 0.511648 0.0431768  0.046326
   0.5081 0.0322887 0.0545132
  0.49952 0.0529608 0.0445739
 0.485675 0.0647688 0.0391643
 0.496702 0.0374989 0.0530822
 0.496272 0.0385144 0.0523808
 0.499872 0.0506211 0.0455001
 0.507365 0.0416977 0.0499257
 0.508559 0.0542159 0.0431254
 0.510343 0.0443601 0.0487734
 0.501606 0.0287003 0.0564719
 0.498122 0.0341738 0.0550767
 0.496721 0.0354023 0.0540843
 0.501843 0.0425326 0.0433219
 0.506426 0.0343944  0.053224
 0.509635 0.0349904 0.0527921
 0.498237 0.0344476  0.055039
 0.495725 0.0397964  0.051272
 0.491578 0.0509645  0.045699
 0.504773 0.0284523 0.0572654
 0.511465 0.0335816   0.05174
 0.507131  0.051106 0.0424435
 0.498567 0.0522021 0.0444278
 0.480758 0.0618429 0.0443931
 0.489128 0.0486169 0.0477921
 0.499449 0.0451463 0.0481759
 0.506254 0.0456386 0.0461729
  0.50274 0.0398466 0.0499552
 0.496636 0.0417986 0.0494855
 0.485588 0.0557387 0.0470526
 0.502375 0.0494367 0.0450808
 0.502952 0.0489924 0.0443288
  0.502246 0.00585603   0.079122
 0.501256 0.0169519 0.0786545
 0.504768 0.0225535 0.0624237
 0.505899 0.0252387 0.0597674
 0.504977 0.0306712  0.054949
 0.477141 0.0560359 0.0507245
 0.492346 0.0149416 0.0733875
 0.497479  0.010383 0.0781963
 0.491178 0.0307572 0.0777431
  0.49898 0.0218354 0.0777427
 0.472212 0.0208635 0.0764787
 0.454956  0.054274 0.0630631
 0.463847 0.0361825 0.0706209
 0.460239 0.0371856 0.0717701
 0.453395 0.0736378 0.0545457
 0.460695 0.0493056 0.0623764
  0.44793 0.0829839  0.052529
 0.451368 0.0674657 0.0560818
 0.447502 0.0679657 0.0596067
 0.439652 0.0609552 0.0633033
 0.449871 0.0822144 0.0514497
 0.476538 0.0554898 0.0510618
  0.46092 0.0562424 0.0593544
 0.466406 0.0519854 0.0630626
   0.4793 0.0592245 0.0479107
  0.47347 0.0623635 0.0526319
 0.461959 0.0688466 0.0525889
 0.465327 0.0491091 0.0558061
 0.473838 0.0387463  0.063599
 0.472501 0.0168617 0.0766168
 0.493299 0.0509009 0.0420944
 0.489173 0.0364572 0.0599611
 0.455811 0.0329967 0.0749755
 0.466036 0.0471808 0.0560212
 0.463226 0.0420164 0.0674563
 0.483989 0.0527809 0.0516714
 0.489202 0.0476804 0.0511436
 0.484497 0.0412248 0.0583208
 0.465852  0.028788 0.0750994
 0.454566 0.0536669 0.0677255
  0.45877 0.0464348 0.0626509
 0.445768  0.038305 0.0741877
 0.430617 0.0487906 0.0635705
 0.412975 0.0494334 0.0645629
 0.410894  0.064043 0.0458055
 0.408339 0.0507983  0.061177
 0.416657 0.0394659 0.0700156
 0.438589 0.0382987  0.073651
 0.418167  0.045774 0.0693403
 0.409175 0.0545375 0.0605591
 0.414738 0.0582123 0.0615081
 0.441754 0.0623525 0.0669731
0.441666 0.079166 0.059301
 0.425925 0.0759946 0.0599969
 0.438078 0.0709784  0.061719
0.430247 0.077856 0.057048
 0.424884 0.0809822 0.0554619
 0.419754 0.0615948 0.0618031
 0.416248 0.0504862 0.0661443
  0.42148 0.0782193 0.0537159
 0.411569 0.0588536  0.059877
 0.401509 0.0593419 0.0556878
 0.385549 0.0463764 0.0557518
 0.418396 0.0554214 0.0654425
 0.414549 0.0562574 0.0631182
 0.389968 0.0619909 0.0482696
 0.366033 0.0388762 0.0593962
  0.35821 0.0616859 0.0447036
 0.356275 0.0322596 0.0515737
 0.386369 0.0531164 0.0454936
 0.385126 0.0461737 0.0501185
  0.39958 0.0435423 0.0605015
 0.409293 0.0618982  0.053776
 0.407198  0.049779 0.0590237
 0.407091 0.0587477 0.0576823
 0.406839 0.0530285 0.0536267
0.385828  0.03367 0.055348
 0.406775 0.0563194 0.0502823
 0.382388 0.0526117 0.0463918
 0.379242  0.048636 0.0478265
 0.357747 0.0436501 0.0504901
 0.355005 0.0553807 0.0297814
 0.355326  0.044971 0.0374373
 0.372273 0.0455132 0.0377467
 0.372731 0.0453904 0.0371618
  0.37277 0.0367788 0.0461023
 0.366051  0.075981 0.0168079
 0.374209 0.0601171 0.0249625
 0.355915 0.0574705 0.0269973
 0.352586 0.0616192 0.0268083
 0.348965 0.0454235  0.039362
 0.348114  0.052419 0.0364021
 0.343547 0.0520071 0.0383144
 0.351753 0.0485825 0.0375905
 0.345185 0.0401193 0.0450701
 0.346634 0.0436857 0.0464232
 0.352152 0.0398986 0.0440489
 0.355292 0.0632131 0.0313567
 0.354882 0.0489711 0.0374892
 0.376745 0.0521837 0.0284742
 0.376442 0.0360976 0.0462797
 0.375947 0.0314895    0.0524
 0.374277 0.0342954 0.0492207
 0.383037  0.034884 0.0508003
 0.392148 0.0404601  0.052103
 0.408693 0.0634382 0.0389729
 0.399873 0.0545844  0.044654
 0.408381 0.0609804 0.0446829
 0.394204 0.0512389 0.0359125
 0.396939 0.0487552 0.0457661
 0.397686 0.0560014 0.0315089
 0.381924 0.0411623 0.0381185
 0.435031  0.047256 0.0665387
 0.436036 0.0558133 0.0554156
 0.417434 0.0412837 0.0705354
 0.411009 0.0420489 0.0681699
 0.384816  0.043369 0.0348885
 0.399155 0.0576233 0.0363858
 0.438248 0.0390948 0.0731951
 0.297301 0.0887558 0.0257451
 0.291612 0.0917576 0.0229889
 0.306421 0.0677529 0.0486626
 0.298047 0.0873977 0.0255717
 0.291106 0.0961296 0.0150338
  0.28824 0.0923381 0.0242827
 0.299144 0.0922603 0.0216106
 0.313124 0.0889225 0.0248608
 0.307949  0.084744 0.0320463
  0.30407 0.0911012 0.0259083
 0.298539 0.0827226 0.0332654
 0.292434 0.0794403  0.040876
 0.302748 0.0854036 0.0309292
 0.308772  0.094219 0.0269015
 0.290373  0.101433 0.0149981
 0.287688 0.0960974 0.0209648
 0.291258  0.103433 0.0105306
 0.290523 0.0977358 0.0165416
 0.291068 0.0944173 0.0151618
 0.278028 0.0922587 0.0397429
 0.284465 0.0948135 0.0242585
 0.274727 0.0982379 0.0329386
 0.283991 0.0947767 0.0210788
 0.286454  0.102158 0.0162999
    0.269462     0.118037 -3.49494e-05
   0.270518    0.114442 -0.00113174
  0.269588   0.112579 0.00897248
 0.269415  0.110609 0.0121218
 0.272081  0.104494 0.0219854
 0.271286  0.103216 0.0140632
 0.272335  0.100752 0.0165375
 0.274995 0.0968806 0.0266227
 0.277179 0.0923994 0.0288577
 0.275313 0.0935875 0.0323088
 0.283271 0.0929802  0.030441
 0.276568 0.0919864 0.0315293
 0.281284  0.083929 0.0337717
 0.276038 0.0908747 0.0225697
 0.274894 0.0926997 0.0181901
 0.276873 0.0872332 0.0228081
 0.282059 0.0811571 0.0313342
 0.284158 0.0872141 0.0347036
 0.284701 0.0759824 0.0384475
 0.294746 0.0795162 0.0207914
 0.291715 0.0730417 0.0415896
 0.281622 0.0830138 0.0357726
 0.288859 0.0755894 0.0511751
 0.286395 0.0797091 0.0390995
 0.287388 0.0785679 0.0475422
 0.280066 0.0874407 0.0376543
 0.284043 0.0873993 0.0378448
 0.283597 0.0840937 0.0448981
 0.284747 0.0895984  0.032144
 0.288961 0.0820543 0.0414487
 0.290555 0.0900039 0.0251871
 0.286999 0.0892874 0.0295626
 0.289783 0.0837158  0.035647
 0.292862 0.0833481 0.0288683
 0.291122 0.0850097 0.0320601
 0.293848  0.086304 0.0217686
 0.292785 0.0885824 0.0214419
 0.294106 0.0861176 0.0232168
 0.294553 0.0868162 0.0221631
 0.296113 0.0888635 0.0162898
    0.324908    0.0846654 -0.000559055
  0.326436  0.0741944 0.00842476
  0.326931  0.0722262 0.00897621
 0.307293 0.0753457 0.0407578
  0.32018 0.0630018 0.0239224
 0.325147 0.0672112 0.0231564
 0.301664  0.080989 0.0301828
 0.312275 0.0571571 0.0503788
 0.295023 0.0827805 0.0131392
 0.327928 0.0690507 0.0115416
  0.326127  0.0740685 0.00279792
  0.327665  0.0688293 0.00939969
  0.325603  0.0768145 0.00721874
 0.325858 0.0775946 0.0035634
  0.327457  0.0715302 0.00936234
 0.329461  0.061854 0.0238574
 0.331124 0.0656911 0.0198145
 0.332943 0.0577839 0.0233727
 0.341791 0.0508145 0.0181438
 0.336872 0.0403229 0.0433587
 0.352216  0.058691 0.0181231
  0.35429 0.0606672 0.0184413
0.356799 0.066054 0.014173
 0.351282 0.0551957 0.0285775
 0.379072 0.0581481 0.0209308
 0.380664 0.0633111 0.0188335
 0.377384 0.0537842  0.026701
 0.378107 0.0540911   0.02649
 0.385749 0.0424901 0.0378254
 0.376491 0.0417525 0.0402239
 0.381545 0.0628961 0.0192824
 0.381181 0.0649652 0.0183878
 0.379651 0.0489698 0.0306279
 0.362198  0.043712 0.0382906
 0.352541 0.0540379 0.0295867
   0.36539  0.0692391 0.00888356
 0.353984 0.0620925 0.0227225
 0.350903   0.05856 0.0256262
 0.339832  0.049511 0.0301166
 0.363356 0.0675288 0.0178314
 0.359736 0.0412032 0.0427962
  0.32974 0.0631898 0.0291575
 0.324745 0.0737539 0.0153387
 0.328253 0.0715644 0.0156631
 0.333641 0.0706322  0.021433
 0.317139  0.065318 0.0382294
 0.327188 0.0581455 0.0369086
  0.35022 0.0680034 0.0274956
 0.345211 0.0527444 0.0352602
0.366296 0.061002 0.029235
 0.353451   0.05988 0.0236252
 0.355485 0.0579166 0.0264378
 0.358358 0.0727029 0.0126538
 0.363219 0.0679769 0.0175032
 0.350718 0.0589149 0.0265807
 0.356843 0.0699961 0.0146205
 0.354588   0.06324 0.0214898
  0.335672  0.0832179 0.00610847
 0.337454 0.0403411 0.0440063
  0.335207  0.0798349 0.00725876
 0.326452 0.0679976 0.0229463
 0.329834 0.0609063 0.0275293
 0.330055 0.0629521 0.0251053
   0.324879   0.0912594 -0.00289752
   0.323795    0.103874 -0.00666282
   0.325086    0.100146 -0.00916226
 0.288121 0.0910303 0.0271453
 0.288163 0.0919078 0.0243674
 0.298994 0.0858043  0.030348
0.284636 0.101893 0.022856
 0.304333  0.081878 0.0454998
  0.30077 0.0754741 0.0477434
 0.306511   0.08609 0.0324816
 0.315054  0.105607 0.0169608
 0.333499 0.0793094 0.0286522
 0.308438 0.0942652 0.0329053
 0.317043 0.0590818 0.0461826
 0.338906 0.0745677 0.0387702
 0.348509 0.0775844 0.0315945
 0.348344 0.0547664 0.0429012
 0.348589 0.0528259  0.043917
 0.347948 0.0791338 0.0344415
 0.341841 0.0942959 0.0276158
 0.352687  0.093713 0.0268808
 0.323014  0.061532 0.0452673
 0.314764 0.0898037 0.0434881
  0.33897 0.0987729 0.0283172
 0.298482  0.104875 0.0457138
 0.292639  0.127388 0.0416709
0.290412 0.104754 0.048793
  0.28166  0.127341 0.0488222
  0.27084  0.129265 0.0497967
 0.282678  0.137005 0.0439033
 0.292489  0.129418 0.0414882
 0.303589  0.107117 0.0435902
 0.332816 0.0978484 0.0318404
 0.314392  0.111793 0.0301644
  0.33144 0.0896752 0.0379131
 0.308314  0.101363 0.0424213
 0.300562  0.102805 0.0447267
 0.300694  0.107748 0.0415973
 0.316822 0.0959834  0.038758
  0.30394   0.10418 0.0377456
 0.302861 0.0941469 0.0441379
  0.30307 0.0884235 0.0452904
 0.307345 0.0996804 0.0366617
 0.296248 0.0960776 0.0481374
  0.30038  0.107614 0.0444874
 0.289804  0.111499 0.0473785
 0.291698  0.113513 0.0455075
 0.294041  0.119303 0.0413518
 0.283365 0.0935725 0.0527439
  0.27776 0.0877869 0.0541088
 0.297747 0.0836996 0.0483145
 0.275822 0.0903824  0.050871
 0.267807  0.101185 0.0467398
 0.269716  0.121856 0.0543374
 0.274322  0.109451 0.0550025
 0.277526 0.0997497 0.0541314
  0.26695  0.120624 0.0184626
 0.264565  0.124352 0.0184217
  0.26685  0.124528 0.0150587
 0.266808  0.123329 0.0173725
 0.265728  0.116835 0.0255627
 0.275449  0.113946 0.0245437
 0.272664  0.103638 0.0222013
 0.265362  0.118839 0.0193244
 0.267285  0.122006 0.0112198
 0.282849 0.0945108  0.036531
 0.273273 0.0974639  0.031231
 0.285304   0.09864 0.0222352
  0.269363   0.117512 0.00661448
 0.268766   0.10965 0.0303517
  0.265515   0.123124 0.00754083
 0.266439  0.117005 0.0210014
   0.2677  0.121132 0.0106186
 0.269382  0.113451 0.0189805
 0.268862  0.113709 0.0110212
 0.268118  0.118446 0.0114871
 0.267215  0.118385 0.0142522
 0.267257  0.115563 0.0252806
0.265093 0.120236 0.022128
 0.266301  0.115966 0.0268566
 0.267787  0.118105 0.0174164
 0.263323  0.117672 0.0297892
 0.265486  0.126733 0.0135533
 0.266402  0.122096 0.0135792
  0.266437    0.12726 0.00567459
 0.264723   0.12624 0.0158696
0.265987 0.125013 0.019934
 0.264526  0.127816 0.0147015
 0.261998  0.131296 0.0200225
 0.260984  0.127603 0.0220721
 0.264644  0.123448 0.0240138
0.249602 0.132436 0.047751
 0.248363  0.134457 0.0468305
 0.250511  0.137935 0.0403586
 0.250838  0.134721 0.0454827
 0.251408  0.124352 0.0533176
 0.251523  0.124349 0.0526122
 0.250219  0.134427 0.0433665
 0.248192  0.130488 0.0508257
 0.238977  0.142356 0.0498308
 0.245124  0.137948 0.0463811
0.243696 0.138286 0.047924
 0.251874  0.131513 0.0461864
 0.256166  0.128339 0.0318654
 0.259931  0.125863 0.0334649
 0.256779  0.127188 0.0356152
  0.25989  0.132662 0.0240103
 0.259546  0.127829 0.0304982
 0.259962  0.123993 0.0268606
 0.259921    0.1296 0.0289407
 0.257724  0.131795 0.0289483
 0.259125  0.124616 0.0336901
 0.257614  0.119574 0.0443542
 0.259388  0.123771 0.0351506
 0.267844  0.124347 0.0142189
 0.265944  0.118751 0.0230637
 0.261622  0.119609 0.0328662
 0.26372 0.114103 0.035474
 0.269637  0.104068 0.0330803
 0.265429  0.121021 0.0225521
 0.260972  0.117683 0.0388376
 0.260146  0.117692 0.0404415
0.256602 0.112754 0.056223
 0.262959  0.125109 0.0546677
 0.255721  0.119607 0.0569366
 0.252961  0.119381 0.0575987
 0.253587  0.124032 0.0486406
   0.2519  0.118902 0.0574372
   0.2615  0.120715 0.0555294
 0.256481  0.121956 0.0567855
0.253439 0.121563 0.057514
  0.25073  0.120862 0.0575911
 0.254323  0.122883 0.0554419
 0.254937  0.124707 0.0540319
0.267516 0.128213   0.0517
 0.288657  0.133686 0.0412616
0.282414 0.126723 0.047981
 0.280444  0.134649 0.0459116
 0.280209  0.130185 0.0469461
 0.290571  0.134169 0.0394665
 0.291412   0.12647 0.0435814
 0.291342  0.128502 0.0447291
 0.290052   0.13323 0.0400969
 0.287489  0.130147 0.0438596
 0.293132  0.140094 0.0368598
 0.309005  0.124748 0.0408703
 0.307622  0.124671 0.0417571
 0.308215  0.120365 0.0417432
 0.309103  0.111992 0.0422452
 0.301994  0.105939 0.0446971
 0.293295  0.109517 0.0477042
 0.307767  0.122881 0.0418386
 0.302947  0.124236 0.0434772
 0.298984  0.133345 0.0416734
 0.263055  0.126704 0.0533315
 0.266557  0.127633 0.0522527
0.277378 0.133763 0.046679
  0.27111  0.128207 0.0498027
 0.272985  0.131171 0.0486559
  0.25871  0.125285 0.0557069
0.263239 0.127681 0.053282
 0.266026  0.127624 0.0522295
  0.26297  0.131506 0.0526961
 0.260719  0.129357 0.0539639
 0.253818  0.120899 0.0569605
 0.245469  0.127586 0.0565044
  0.23982  0.141327 0.0503993
 0.243676  0.129083 0.0571916
 0.249565  0.122855 0.0564349
 0.256796  0.123457 0.0564042
 0.260552  0.125557 0.0543109
 0.261103  0.129276 0.0538745
 0.261056  0.130068 0.0529412
 0.231504  0.142443 0.0587331
 0.239217  0.131884 0.0610424
 0.259067  0.132501 0.0552583
  0.23551  0.146409 0.0574564
 0.236186  0.147675 0.0549956
 0.235676  0.138292 0.0594897
 0.234849   0.14306 0.0587387
 0.250419  0.145138 0.0566266
 0.250938   0.13595 0.0559891
0.249111 0.136381 0.055245
 0.239171  0.133546 0.0588802
 0.236627  0.149588 0.0540777
  0.23596   0.13944 0.0571896
 0.241476  0.140682 0.0554989
 0.251336   0.14666 0.0564926
 0.262477  0.144014 0.0523151
 0.256195  0.141288 0.0559053
 0.260421  0.145371 0.0534016
 0.262677  0.142092 0.0518399
  0.26213  0.138528 0.0527231
 0.262225  0.138173 0.0527056
 0.261526  0.142103 0.0527112
 0.26562 0.152838 0.047866
 0.257902  0.141166 0.0518849
 0.280791  0.129295 0.0475991
 0.286024  0.142248 0.0448395
 0.283787  0.127748 0.0471647
 0.294744   0.13624 0.0440346
  0.28803  0.127786 0.0459456
 0.311692  0.128595 0.0424813
 0.311405  0.129981 0.0391226
 0.297767   0.13753 0.0429107
 0.271772  0.130508 0.0499131
 0.276096  0.130729 0.0488184
 0.272488  0.133899 0.0509195
 0.273352    0.1298 0.0497939
0.280442 0.138118 0.045554
  0.27797  0.131878 0.0475599
 0.262198  0.126691 0.0540775
 0.263583  0.126135 0.0535441
 0.260536  0.128285 0.0535032
  0.26166  0.134931 0.0520156
 0.26895 0.129782 0.050747
 0.317835  0.134785 0.0448202
 0.320824   0.13006 0.0436415
 0.316473   0.10203 0.0451965
 0.318766  0.111761 0.0432551
 0.314376 0.0925885 0.0464828
 0.322465  0.126513 0.0417818
 0.306692  0.116821 0.0421638
 0.318879  0.117541 0.0351619
 0.312235   0.10714 0.0400735
 0.311541  0.107592 0.0415284
 0.314578  0.110953 0.0366225
 0.321412  0.120847 0.0359971
 0.320832  0.117709 0.0345915
 0.323843 0.0926838 0.0405385
 0.325642  0.083738 0.0430039
 0.317577  0.100496 0.0427756
 0.322521 0.0821481 0.0430397
 0.344718 0.0784722 0.0335746
 0.334364 0.0863862 0.0431362
 0.330999 0.0855099 0.0387524
 0.328696 0.0794647 0.0425673
 0.330868 0.0974468 0.0412402
 0.330805 0.0980556  0.040984
  0.32404 0.0923169 0.0433969
 0.333519  0.105102 0.0410214
 0.325765 0.0925509 0.0410402
  0.33222 0.0835353 0.0434958
 0.331657 0.0934906 0.0421361
 0.329182 0.0684741 0.0470164
0.330683 0.076791 0.043551
 0.376989 0.0315853 0.0614488
 0.378071 0.0516348 0.0635421
 0.403907 0.0790707 0.0523707
 0.417739  0.061209 0.0604643
 0.406068 0.0570791 0.0598049
 0.422197 0.0751165 0.0575962
 0.408303 0.0720888 0.0553069
 0.406261 0.0738913 0.0540734
 0.401606 0.0649512 0.0549301
  0.35554 0.0558246 0.0453483
 0.359363 0.0774373 0.0400139
  0.34495 0.0576862 0.0428159
 0.365858 0.0730383  0.045889
 0.360474 0.0616206 0.0469562
  0.37141 0.0786657 0.0452313
 0.359299 0.0745915 0.0405235
 0.363361 0.0929318  0.039653
 0.346932 0.0802456 0.0450338
 0.339526  0.072184 0.0395412
 0.341839 0.0788041 0.0442246
 0.354665 0.0953183 0.0399397
 0.370064 0.0874961  0.045889
 0.348308 0.0418327 0.0478825
  0.37028 0.0768045 0.0462409
  0.35488 0.0989463 0.0404121
 0.336928  0.037197 0.0499386
 0.374874 0.0696623  0.054654
 0.380266  0.101618 0.0541003
 0.382805  0.110521 0.0596943
 0.376405 0.0594081 0.0623407
  0.36963 0.0617383 0.0539003
 0.376768  0.102289 0.0591274
 0.373875 0.0529082 0.0611726
 0.379754  0.110783 0.0582058
 0.381116  0.108634 0.0643594
0.382786 0.115045 0.070979
 0.385976 0.0765282 0.0701043
 0.382358 0.0964528 0.0640753
 0.379848  0.103488 0.0637964
 0.380181 0.0956841 0.0603078
 0.385598 0.0752298 0.0677181
 0.388654  0.072433 0.0729928
 0.425997 0.0761805 0.0696857
  0.45051 0.0669562 0.0731765
 0.456176 0.0840018 0.0711446
 0.425098 0.0734284     0.072
 0.410641 0.0825838 0.0704443
 0.398461 0.0653243 0.0730249
  0.39516 0.0657006 0.0692967
 0.400831  0.064296 0.0743606
  0.39161 0.0998851 0.0720806
 0.398154 0.0624566 0.0735627
 0.419218 0.0437072 0.0711004
 0.388789  0.107752 0.0525324
 0.380427 0.0663517 0.0656919
 0.391251  0.096188 0.0523802
 0.397054 0.0394587 0.0671795
 0.394214 0.0673027 0.0725516
 0.410388 0.0740196 0.0693745
 0.411866  0.072186 0.0695506
 0.421766 0.0608236 0.0691384
 0.479269 0.0758205 0.0697756
 0.483737 0.0613495 0.0719156
 0.473146 0.0634806 0.0727581
 0.466331 0.0641514 0.0723123
 0.470448  0.069999 0.0693096
 0.471794 0.0611106 0.0728402
 0.492063 0.0234318 0.0795678
  0.48351 0.0428417 0.0758705
 0.476166 0.0526709 0.0778107
 0.469572 0.0594213 0.0744717
 0.460652 0.0825613 0.0776719
 0.454584 0.0961935 0.0684497
 0.481772 0.0617427 0.0768238
 0.487957 0.0319431 0.0779259
 0.480202  0.059713 0.0735164
 0.466986 0.0736944 0.0714377
 0.490832 0.0784592 0.0663772
 0.496692 0.0528335 0.0699017
 0.498905 0.0828394  0.064686
 0.496717  0.081038 0.0654732
 0.483992 0.0697115 0.0723844
 0.488232 0.0738243 0.0714222
0.498626 0.071889  0.07139
 0.498624 0.0314398 0.0765517
 0.495124 0.0386332 0.0759888
 0.500177 0.0315446 0.0765508
 0.498716 0.0211738 0.0776966
 0.489555 0.0507759 0.0745936
  0.49297 0.0637911 0.0716617
 0.463226 0.0654819 0.0715465
 0.458776 0.0444441  0.075891
 0.469721 0.0376089 0.0776274
 0.480581 0.0447507 0.0767748
 0.484569 0.0643209 0.0733164
  0.44417 0.0448697 0.0734941
 0.434206 0.0578638 0.0654235
 0.424598 0.0606848 0.0679232
 0.454652 0.0575432 0.0728488
 0.436227 0.0499528 0.0699058
 0.404394 0.0721244 0.0560583
 0.411861 0.0557906 0.0610855
 0.42568 0.080245  0.05681
 0.426692 0.0687013 0.0634396
 0.446603 0.0684375 0.0715937
  0.44986  0.061403 0.0734712
 0.426451 0.0458143  0.071995
 0.391646 0.0356824 0.0607864
 0.448399 0.0697903 0.0712372
 0.454117 0.0455427 0.0732946
 0.426578 0.0720757 0.0681911
 0.425237 0.0677173 0.0699645
 0.416541 0.0481143 0.0676299
 0.428517 0.0584132 0.0693436
 0.441475 0.0679636 0.0726037
 0.446163 0.0543371 0.0711595
 0.433529  0.061421 0.0744485
 0.428526 0.0455262  0.072161
 0.433591 0.0641467  0.069558
 0.436491 0.0484059  0.074617
 0.451659   0.04616 0.0743714
 0.422131 0.0578808 0.0669322
 0.413464 0.0446085 0.0699068
 0.411335 0.0396454 0.0692325
 0.411813 0.0474851 0.0680155
 0.355674  0.111811 0.0456911
 0.344264 0.0914547 0.0426783
 0.324376 0.0832095 0.0432581
 0.332999  0.108054 0.0436963
 0.326579 0.0842558 0.0440922
 0.338056  0.082035 0.0431482
  0.32664 0.0751149 0.0444857
 0.323478 0.0762119 0.0449847
 0.323172 0.0776544 0.0448641
 0.325622 0.0894569 0.0486732
 0.325113 0.0661443 0.0461186
 0.336983 0.0638821 0.0494113
0.320518 0.052828 0.049564
 0.343662 0.0841513 0.0533912
 0.336664 0.0507142 0.0475738
 0.357178 0.0951522 0.0630425
  0.35186 0.0968186  0.059017
 0.352203  0.109629 0.0657516
 0.361446 0.0520523 0.0659716
 0.357559 0.0705081 0.0444495
 0.358913 0.0905455 0.0453213
 0.338747 0.0600551 0.0505326
 0.321807 0.0937604 0.0463252
 0.328497  0.112918 0.0427126
 0.323741  0.114699 0.0459141
 0.308883 0.0861069 0.0455039
 0.306696 0.0775467 0.0475353
 0.316871 0.0787279 0.0464381
  0.29205 0.0865027  0.050011
 0.299976 0.0860908 0.0466598
 0.301599 0.0877554 0.0454343
 0.309251 0.0997774 0.0434813
 0.302132  0.104535 0.0444436
 0.290879  0.101633 0.0496458
 0.304478  0.113908 0.0497689
 0.309238  0.122398 0.0537834
 0.303515  0.116874 0.0502327
0.295995 0.109825 0.046439
  0.31381  0.118362 0.0435059
 0.312536  0.118388 0.0404002
 0.322509  0.125673 0.0437111
 0.273453  0.125055 0.0521172
0.277671 0.141908 0.054724
 0.269773  0.138865 0.0585714
 0.267422  0.132342 0.0538996
 0.267035  0.124777 0.0538879
0.266057 0.130668 0.056384
 0.260012  0.125507 0.0569704
 0.249687  0.131864 0.0561116
 0.241753  0.130355 0.0592363
 0.237873  0.130729 0.0617094
 0.234458  0.134741 0.0613933
 0.231073  0.139772 0.0605103
  0.25418  0.127812 0.0551522
 0.252747   0.12653 0.0568931
 0.247237  0.124534 0.0591709
 0.267235  0.137191 0.0582266
 0.256852  0.124899 0.0581473
 0.257237  0.125358 0.0552235
 0.293515  0.133082 0.0449465
 0.280493  0.124133 0.0532083
 0.281332   0.12354 0.0496537
 0.278302  0.123174 0.0511758
 0.281114  0.126823 0.0523719
  0.30041  0.136765 0.0417649
0.315343 0.138045   0.0453
 0.284677  0.114277 0.0490876
 0.299984  0.112195 0.0440394
  0.30323  0.123844 0.0535198
 0.298775  0.112446 0.0448986
 0.309657  0.133851 0.0546602
 0.284896  0.115124 0.0493228
 0.290172  0.124231 0.0560706
 0.302133  0.134461 0.0558838
 0.293219  0.139819 0.0566667
 0.285692  0.132621 0.0569444
 0.262964  0.131658 0.0567886
 0.277693   0.13377 0.0606301
 0.274949  0.135908 0.0500769
 0.275344  0.123391 0.0582785
  0.28176  0.128368 0.0578551
 0.243462  0.126903 0.0605558
 0.244116  0.126578 0.0606151
  0.24224  0.135627 0.0620128
 0.244752  0.135367 0.0617534
 0.241213  0.137738 0.0628776
 0.231526  0.154504 0.0619335
 0.228144  0.141315 0.0628439
 0.228464  0.137608 0.0650558
 0.234792  0.132661 0.0633226
 0.238432  0.136861 0.0631003
  0.23291  0.136132 0.0619067
 0.244653  0.128308 0.0604789
 0.254393  0.135438 0.0622904
 0.255769  0.131762 0.0592999
 0.262582  0.135347 0.0602269
 0.250312  0.125202 0.0594971
 0.245969  0.125605 0.0599273
 0.256627  0.130585 0.0584613
 0.268312  0.138805 0.0584704
 0.266413  0.134423 0.0572949
 0.262626  0.133477 0.0599362
 0.264215  0.138751 0.0614737
 0.267126  0.142161 0.0608288
  0.26861  0.134637 0.0603801
 0.257207    0.1283 0.0580871
 0.262197  0.131465 0.0574439
 0.250229  0.136531 0.0619416
 0.253535  0.129867 0.0596663
 0.257215  0.133612 0.0605936
  0.26625  0.138686 0.0623259
 0.264634  0.141306 0.0626951
 0.249759  0.128199 0.0594813
 0.234267  0.131614 0.0637294
 0.232484  0.134953 0.0632082
 0.228164  0.137124 0.0653195
 0.225597  0.140582 0.0652607
 0.228801  0.137481 0.0647255
 0.239781  0.128294 0.0622013
 0.236585  0.130507 0.0629333
 0.242997  0.137551 0.0630557
0.249954 0.142287 0.063794
0.243079 0.126315 0.061137
 0.247817  0.128347 0.0600708
 0.270751  0.118763 0.0546953
 0.256515  0.115161 0.0568101
 0.262137  0.125504 0.0548096
0.282291 0.124424 0.055077
 0.277966   0.12056 0.0600862
 0.271128  0.111002 0.0555808
 0.269096  0.113893 0.0554334
0.287042 0.124759 0.059315
  0.29012  0.108225 0.0535172
 0.282249  0.109877 0.0545665
 0.280832  0.118373 0.0560027
 0.285634  0.109228 0.0564888
 0.293458  0.118151 0.0614305
 0.277301 0.0897393 0.0542825
 0.279217  0.100293 0.0536225
 0.269899 0.0915994 0.0578296
 0.267846  0.105669 0.0565298
 0.260486  0.103298 0.0590927
 0.256774  0.100407 0.0612687
 0.260353 0.0996511 0.0599073
 0.271837 0.0878062 0.0584852
