  0.174817 0.00873969  -0.108301
  0.181792  0.0116407 -0.0970519
 0.197427 0.0089836  -0.06948
   0.187653 1.48296e-05  -0.0841466
    0.19576 -0.00305042  -0.0668111
    0.205897 -0.000889507    -0.058604
   0.187977 0.000911154  -0.0897636
   0.216812 -0.00334114  -0.0555958
 0.213981  -0.01162 -0.070185
   0.198395 -0.00476955  -0.0834592
-0.201866 -0.168459 -0.102164
-0.206174 -0.167767 -0.105252
-0.208131 -0.158674  -0.09117
 -0.206503  -0.177601 -0.0987303
 -0.205152  -0.183705 -0.0940824
 -0.209862  -0.194262 -0.0810535
  -0.21124  -0.177476 -0.0856916
 -0.208153  -0.198064 -0.0856518
 -0.212235  -0.204865 -0.0684381
-0.205888 -0.206411 -0.078366
 -0.223333   -0.17939 -0.0415056
 -0.292508  -0.333139 -0.0605724
 -0.262585  -0.294987 -0.0606908
 -0.253566  -0.268223 -0.0715551
 -0.271155  -0.295691 -0.0670498
 -0.280093  -0.314145 -0.0625512
 -0.300572  -0.337164 -0.0646867
 -0.282542  -0.302654 -0.0720695
 -0.251082  -0.247911 -0.0840605
 -0.241065  -0.233488 -0.0868129
 -0.262191  -0.258012 -0.0859946
 -0.270589  -0.270659 -0.0841616
 -0.279842  -0.283942 -0.0829959
 -0.296262  -0.311388 -0.0786308
 -0.284752  -0.294542 -0.0797061
 -0.260995  -0.263379 -0.0807917
 -0.261258  -0.273066 -0.0742801
 -0.269911  -0.283443 -0.0741311
 -0.297047   -0.31399 -0.0656365
 -0.273585  -0.317296 -0.0553166
 -0.247447   -0.28536 -0.0546933
 -0.256377  -0.293636 -0.0563954
 -0.312774  -0.378048 -0.0488338
 -0.291727   -0.35295 -0.0473851
-0.281571 -0.333231 -0.051456
 -0.266122  -0.321962 -0.0461069
 -0.248524  -0.302126 -0.0444623
 -0.279136  -0.348744 -0.0398662
 -0.317727  -0.468285 0.00155634
-0.344559 -0.530077 0.0179765
  -0.27336  -0.360418 -0.0278064
 -0.289302   -0.39666 -0.0184506
 -0.251945  -0.332631 -0.0278124
-0.268243 -0.369873 -0.017629
 -0.232917  -0.288927 -0.0204237
 -0.224658  -0.273681 -0.0443353
 -0.219246  -0.276486 -0.0392437
 -0.204552  -0.273658 -0.0314028
  -0.22059  -0.296733 -0.0274694
 -0.226342  -0.296671 -0.0312856
 -0.212537  -0.279628 -0.0331435
 -0.205702  -0.260011 -0.0413446
 -0.244065  -0.325053 -0.0262369
-0.233179 -0.299816 -0.033973
 -0.227085  -0.235694 -0.0350449
 -0.211595  -0.244203 -0.0474641
-0.225698 -0.265122 -0.050913
 -0.231106  -0.264979 -0.0552239
 -0.219664  -0.258007 -0.0510857
-0.201139 -0.255927 -0.041186
 -0.221097  -0.245451 -0.0610285
 -0.243849  -0.251097 -0.0756775
 -0.228392   -0.24738 -0.0655604
 -0.214426  -0.231531 -0.0658034
-0.215292 -0.220136 -0.074993
  -0.22029  -0.229757 -0.0719142
-0.234295 -0.231192 -0.082514
  -0.21812   -0.20609 -0.0535476
 -0.211996  -0.218877 -0.0715706
 -0.199449  -0.226423 -0.0608646
-0.207045 -0.232472 -0.060891
 -0.214157  -0.235285 -0.0629843
 -0.201799  -0.241079 -0.0520482
 -0.21906 -0.233653 -0.051958
 -0.207062   -0.25024 -0.0489113
 -0.194448   -0.24175 -0.0469461
 -0.193016  -0.228529 -0.0556786
 -0.186375  -0.223551 -0.0545372
  -0.16479  -0.185268 -0.0687174
   -0.1687  -0.184379 -0.0719291
 -0.157866  -0.182069 -0.0669707
-0.162416 -0.181005 -0.070551
 -0.156223  -0.171529 -0.0737103
 -0.151484  -0.149851 -0.0883472
 -0.148225  -0.152961 -0.0834288
 -0.15968 -0.168761 -0.077715
 -0.173936   -0.17629 -0.0805739
 -0.164882  -0.176573 -0.0751233
 -0.169395  -0.166067 -0.0854412
 -0.157211  -0.142232 -0.0972559
-0.149193 -0.134749 -0.098896
-0.161247 -0.137166 -0.103536
-0.178312 -0.142574 -0.108803
-0.184963 -0.133829 -0.119427
-0.185544 -0.149572 -0.107543
 -0.182254  -0.161894 -0.0959371
 -0.175033  -0.160749 -0.0928367
 -0.158995  -0.155456 -0.0878081
 -0.183891  -0.159434 -0.0707161
 -0.180769  -0.169938 -0.0890919
-0.177931 -0.191493 -0.072326
 -0.163757  -0.193728 -0.0615066
 -0.172676  -0.186071 -0.0731234
  -0.17849   -0.18205 -0.0792805
 -0.185008  -0.182465 -0.0828648
 -0.182245  -0.219421 -0.0546702
-0.179269 -0.204107 -0.063984
 -0.172213  -0.196667 -0.0647931
  -0.17035  -0.206812 -0.0562069
 -0.173752   -0.21936 -0.0493005
 -0.176505  -0.213536 -0.0553283
 -0.189779  -0.243636 -0.0424994
 -0.185374  -0.245398 -0.0383665
 -0.172754  -0.235678 -0.0368856
 -0.176464  -0.234148 -0.0404194
 -0.17111 -0.225148 -0.043563
 -0.167574  -0.211021 -0.0514431
 -0.161751  -0.204571 -0.0525405
 -0.164253  -0.231476 -0.0347722
 -0.168287  -0.227981 -0.0396844
 -0.163142  -0.218368 -0.0434193
-0.153419  -0.21251  -0.04195
-0.145604  -0.20645  -0.04172
 -0.135209  -0.193376 -0.0447347
 -0.125594  -0.185758 -0.0457147
 -0.157139  -0.211327 -0.0448936
 -0.115195  -0.172656 -0.0492936
 -0.109289  -0.175976 -0.0435381
 -0.105236  -0.171939 -0.0444892
 -0.115395  -0.182584 -0.0421865
  -0.12081  -0.183107 -0.0446855
 -0.143011  -0.189537 -0.0523933
 -0.149146   -0.19864 -0.0492017
 -0.149883  -0.188371 -0.0574292
 -0.138741  -0.183215 -0.0545857
-0.0498333  -0.293543  0.0551131
  -0.13471  -0.178372 -0.0557422
 -0.139468  -0.170111 -0.0647422
  -0.14974  -0.179076 -0.0640553
 -0.132563  -0.180397 -0.0531143
 -0.127874  -0.174576 -0.0549583
 -0.119262  -0.169237 -0.0542313
 -0.123634   -0.15342 -0.0694233
 -0.130734  -0.166357 -0.0625919
 -0.137796  -0.156406 -0.0744307
-0.133321 -0.164171 -0.065715
 -0.127637   -0.15237 -0.0722776
 -0.126373  -0.137227 -0.0833861
 -0.140376  -0.151825 -0.0796275
 -0.143509  -0.151212 -0.0820074
 -0.130942  -0.151529 -0.0746083
-0.120958 -0.138498 -0.079504
 -0.118319  -0.148171 -0.0706005
 -0.105444  -0.136137 -0.0731707
-0.0993313   -0.13772 -0.0690648
 -0.106972  -0.151351 -0.0617453
 -0.122529  -0.163632 -0.0604691
 -0.113201  -0.161477 -0.0570496
 -0.111343  -0.149103 -0.0658783
-0.0906641  -0.139879  -0.063019
-0.0997962  -0.158716 -0.0521037
 -0.108355  -0.163837 -0.0524543
-0.0870649   -0.15257 -0.0500108
-0.0912677  -0.149303 -0.0553755
-0.0816168  -0.137641 -0.0602624
-0.0754393  -0.124759 -0.0572419
-0.0767265   -0.12011 -0.0726495
-0.0863493   -0.10093 -0.0516573
-0.0863854  -0.109634 -0.0363568
-0.0819674  -0.110173 -0.0833345
-0.0871502  -0.104943 -0.0898869
 -0.095774  -0.111322 -0.0887481
-0.0953284  -0.125295 -0.0769982
-0.0875992  -0.127496 -0.0716403
-0.0994396  -0.107614 -0.0936057
-0.0967848  -0.107147 -0.0838285
 -0.105273  -0.124371 -0.0826423
-0.108235 -0.127114 -0.081997
 -0.114403  -0.133028 -0.0805543
 -0.110453    -0.1149 -0.0932241
 -0.113322  -0.110046 -0.0764184
-0.145969 -0.120676 -0.108611
-0.138277 -0.109362 -0.113561
-0.143691 -0.104204 -0.120589
-0.150202 -0.108389 -0.120822
-0.154052 -0.125557 -0.108937
-0.178512  -0.12855 -0.120156
-0.172284 -0.128453   -0.1167
-0.177225 -0.113061 -0.131612
-0.155988 -0.105301 -0.126375
-0.164181 -0.107936 -0.128836
-0.165607  -0.12321  -0.11722
-0.141659 -0.122066  -0.10508
 -0.132396  -0.124692 -0.0973721
 -0.128869  -0.129146 -0.0915836
 -0.117193   -0.12508 -0.0884104
  -0.11971  -0.126755 -0.0883612
 -0.122113  -0.122869 -0.0929253
 -0.114718   -0.11149 -0.0982606
  -0.12055  -0.103598 -0.0979263
-0.122754 -0.109412 -0.104474
-0.127795 -0.108617 -0.108073
  -0.13794 -0.0824645  -0.134888
 -0.133931 -0.0941262  -0.123294
 -0.124163 -0.0975665  -0.115018
 -0.129141 -0.0969306  -0.118419
 -0.156186 -0.0910191 -0.0564975
 -0.168245 -0.0819097   -0.15133
 -0.171021 -0.0971329  -0.140898
 -0.176913 -0.0923331  -0.147581
 -0.183368 -0.0744166    -0.1646
 -0.175721 -0.0693227    -0.1646
 -0.148629 -0.0691467  -0.150613
 -0.153109 -0.0907511   -0.13644
 -0.161874 -0.0925192  -0.139691
 -0.147022 -0.0889536  -0.134528
 -0.115293 -0.0933311  -0.113492
-0.124797 -0.094042 -0.101879
  -0.11322 -0.0967951  -0.109662
  -0.11585 -0.0958894 -0.0890559
-0.0845512 -0.0844628  -0.105203
-0.0944699 -0.0900527  -0.105611
 -0.10523  -0.10266 -0.100619
 -0.104543 -0.0953206 -0.0827202
-0.0842939 -0.0936595 -0.0715163
-0.0878435 -0.0831853 -0.0754123
-0.0991469 -0.0832497  -0.036901
-0.0943234 -0.0813359 -0.0561166
-0.0917129 -0.0765056  -0.074971
 -0.107531 -0.0804649 -0.0113095
 -0.119056 -0.0450759  -0.020404
 -0.114042 -0.0525035 -0.0302401
 -0.112968 -0.0468724 -0.0430734
 -0.100334 -0.0639895 -0.0633901
 -0.108943 -0.0578825 -0.0417263
 -0.113762 -0.0602992 -0.0176237
  -0.11657 -0.0422161 -0.0364132
 -0.119109 -0.0321445 -0.0425381
 -0.146644 -0.0276956 -0.0378265
 -0.157405 -0.0280862 -0.0394876
 -0.165233 -0.0284513 -0.0368767
 -0.111673 -0.0191342  -0.098429
 -0.149468 -0.0269733 -0.0465132
 -0.111657  -0.038733 -0.0623731
-0.0999914 -0.0586427 -0.0727786
  -0.10731 -0.0494291 -0.0610118
-0.0909987 -0.0680058  -0.105446
-0.0916793 -0.0845718   -0.10846
 -0.103793 -0.0423331 -0.0853705
 -0.106745 -0.0322053 -0.0915452
 -0.117557 -0.0135447  -0.141278
 -0.113669 -0.0173625  -0.171331
 -0.155479 -0.0190497  -0.100885
 -0.175426 -0.0278839 -0.0382164
 -0.171558 -0.0285282 -0.0360538
 -0.187582 -0.0271062 -0.0406445
 -0.168013 -0.0279946 -0.0401977
 -0.149747 -0.0248174  -0.061317
 -0.161443 -0.0243013  -0.064988
 -0.117688 -0.0174166  -0.110518
 -0.113837 -0.0438596  -0.151782
-0.0957905  -0.028813   -0.13676
-0.0959701 -0.0362097  -0.123488
 -0.110108 -0.0828794 -0.0958763
 -0.103927 -0.0706221  -0.126228
 -0.115665 -0.0843881  -0.118137
 -0.117814 -0.0742868  -0.130505
 -0.129185 -0.0799142  -0.132008
 -0.134458 -0.0574801  -0.146315
  -0.13906 -0.0320107   -0.17377
-0.139299 -0.064281 -0.149687
 -0.171385 -0.0972514 -0.0259802
 -0.179538 -0.0546895  -0.177536
 -0.170655 -0.0267355  -0.194258
 -0.219744 -0.0792831 -0.0520115
 -0.159528 -0.0279754  -0.187637
 -0.150624 -0.0183382    -0.1903
 -0.145661 -0.0589071  -0.157025
 -0.154267 -0.0491602  -0.169014
 -0.170552 -0.0570557  -0.171223
 -0.195058 -0.0351596  -0.131235
 -0.173138 -0.0205192  -0.133169
  -0.170472 -0.00793167   -0.170311
 -0.199879 -0.0183155 -0.0943823
 -0.191492 -0.0192349 -0.0912666
 -0.182328 -0.0126544  -0.136343
 -0.197009 -0.0199999  -0.123388
 -0.207777 -0.0428957 -0.0948915
   -0.2142 -0.0502686 -0.0776222
 -0.218716 -0.0448997 -0.0614257
 -0.220773 -0.0278288 -0.0560886
 -0.214972 -0.0224582 -0.0685931
 -0.213931 -0.0236174 -0.0620822
 -0.208182 -0.0287101 -0.0909566
 -0.213733 -0.0320594  -0.075653
 -0.210089 -0.0220185 -0.0713942
 -0.169295 -0.0166721  -0.110262
 -0.204369 -0.0227666 -0.0660827
 -0.198443 -0.0257471 -0.0487138
 -0.204618 -0.0263883  -0.045229
 -0.211975 -0.0262916 -0.0480506
-0.156925 -0.017328 -0.112137
  -0.138588 -0.00888821   -0.177496
 -0.131803 -0.0191454  -0.179227
 -0.120698 -0.0483839  -0.151856
 -0.126979 -0.0114126  -0.158428
 -0.129396 -0.0298939  -0.170118
  -0.127808 -0.00837121   -0.183098
 -0.173397 -0.0294805 -0.0299002
 -0.181637 -0.0316497 -0.0159306
 -0.167862 -0.0180661  -0.102309
 -0.170829 -0.0303177 -0.0248948
 -0.182482 -0.0221016 -0.0726588
 -0.184267 -0.0208974 -0.0803486
 -0.175651 -0.0171556  -0.106504
 -0.185634 -0.0307954 -0.0204226
  -0.192054  -0.0330973 -0.00860085
 -0.177974 -0.0220402 -0.0736751
  -0.203403  -0.0330779 -0.00750533
 -0.190065 -0.0247701 -0.0546709
 -0.199566 -0.0254035 -0.0506796
 -0.217842 -0.0269884 -0.0427513
  -0.213423  -0.0331495 -0.00565284
  -0.217933  -0.0324372 -0.00956629
 -0.229588 -0.0175444 -0.0447328
 -0.218046 -0.0224319 -0.0647502
 -0.192968 -0.0230977 -0.0659015
 -0.199202 -0.0326186 -0.0110354
  -0.20159 -0.0314564 -0.0176286
 -0.211554 -0.0313063 -0.0172249
 -0.201951 -0.0203537  -0.082152
 -0.221532 -0.0313071 -0.0150649
 -0.227798 -0.0306243 -0.0170325
 -0.215903 -0.0304035 -0.0224629
 -0.217367 -0.0268462 -0.0437147
  -0.22625 -0.0366468   -0.03226
 -0.224035 -0.0291099 -0.0276164
 -0.206864 -0.0295137 -0.0280939
  -0.21147 -0.0288011 -0.0333533
 -0.214653 -0.0278967 -0.0386058
 -0.200231 -0.0270534  -0.040525
 -0.193701 -0.0314085 -0.0295949
 -0.187178 -0.0187485 -0.0958792
  -0.19458 -0.0307503  -0.021161
 -0.198831 -0.0304201 -0.0223696
 -0.202548 -0.0307683 -0.0208641
   -0.17889 0.000505564   -0.196461
  -0.194213 -0.00444881    -0.15622
 -0.200862 -0.0130047  -0.119911
 -0.165311 0.00838184  -0.224128
 -0.13002  0.059289 -0.271901
-0.166463 0.0340415 -0.257507
-0.179397 0.0263561 -0.221468
 -0.220575  0.0277118 -0.0375091
 -0.220152  0.0331301 -0.0329323
-0.221216 0.0227046 -0.040526
 -0.210677 -0.0126078   -0.10558
  -0.15477 0.00924319   -0.22006
 -0.188136 -0.0134385  -0.129822
 -0.152574 -0.0020632  -0.204469
 -0.161959 -0.0112385  -0.149078
 -0.175159 -0.0143388  -0.126089
-0.142253 0.0180287 -0.225526
-0.104946 0.0299467 -0.221716
-0.104652  0.060808 -0.260497
-0.129857 0.0152076 -0.215631
  -0.143188 -0.00865006   -0.177962
 -0.118112 0.00565929  -0.197735
-0.106017 0.0118322  -0.19955
  -0.13568 -0.0117755  -0.155401
-0.0872533   0.046305  -0.233263
-0.0915686  0.0237717  -0.207321
 -0.105575 0.00274936  -0.188079
 -0.130455 -0.0122505  -0.151955
-0.0791212  0.0425185  -0.224484
  -0.0983597 -0.000701108    -0.180451
-0.0803914  0.0149469  -0.190914
-0.0865461  0.0195661  -0.199608
-0.0839517  0.0478331  -0.185327
-0.0808945  0.0157957  -0.141849
-0.0647588  0.0444859  -0.197049
 -0.0969922 -0.00605115   -0.136294
 -0.100174 -0.0115643   -0.15729
-0.0646234  0.0493171  -0.203806
-0.0799373  0.0125634  -0.171048
 -0.136568 -0.0233807 -0.0709252
 -0.114284 -0.0165155  -0.117116
 -0.110106 -0.0183087  -0.104914
 -0.137717 -0.0305093  -0.016014
  -0.163201  -0.0339627 -0.00013856
 -0.145554 -0.0263593 -0.0501219
  -0.156263  -0.0325622 -0.00694997
 -0.124735 -0.0285858 -0.0302924
 -0.128081  -0.027716 -0.0366252
 -0.152756 -0.0303937 -0.0207918
 -0.136802 -0.0276941 -0.0364869
 -0.145372  -0.030252 -0.0178251
  -0.14458 -0.0231059 -0.0745986
   -0.1337 -0.0189795  -0.104689
  -0.170781  -0.0338345 -0.00315799
 -0.167494 -0.0307164 -0.0209009
 -0.178055 -0.0322608 -0.0122774
   -0.18426  -0.0337584 -0.00543913
  -0.174367  -0.0330518 -0.00802067
 -0.212955 -0.0345302 0.00232737
 -0.218642  -0.034254 0.00216517
  -0.225515   -0.033752 6.29425e-05
 -0.204161 -0.0348264 0.00140113
  -0.189482  -0.0350892 0.000187655
 -0.194296  -0.035468 0.00322809
 -0.209659 -0.0354146  0.0065234
 -0.179878 -0.0352429 0.00166953
 -0.176952 -0.0356818 0.00463886
 -0.185445 -0.0363593 0.00693022
 -0.214961 -0.0352653 0.00802946
  -0.22357 -0.0353709   0.010246
  -0.219634  -0.0334926 -0.00359006
 -0.182021 -0.0310843  -0.019679
 -0.203316 -0.0314314 -0.0175739
 -0.208347 -0.0319696 -0.0134395
 -0.213212 -0.0317806 -0.0145257
 -0.225489 -0.0302623 -0.0209357
 -0.201981 -0.0289277 -0.0310996
 -0.170376 -0.0303952 -0.0243748
 -0.184254  -0.029062 -0.0310931
 -0.195188 -0.0304022 -0.0231276
 -0.190384 -0.0285721 -0.0334222
  -0.17622 -0.0292142 -0.0314241
 -0.167788 -0.0274791 -0.0438204
 -0.173037 -0.0262304 -0.0498935
 -0.178589 -0.0259594  -0.049586
 -0.205204 -0.0287774 -0.0328094
 -0.211817 -0.0292645 -0.0307222
 -0.231098 -0.0288503 -0.0250706
 -0.192856  -0.027927 -0.0367277
  -0.18233 -0.0257141 -0.0501308
 -0.149734 -0.0156375  -0.125658
 -0.176444 -0.0228938  -0.068325
 -0.170619 -0.0227504 -0.0724203
 -0.225185 -0.0282113   -0.03279
 -0.186639 -0.0255044 -0.0508586
 -0.195179 -0.0259949  -0.047674
  -0.21961 0.00833571 -0.0600148
 -0.244714 -0.0237923 -0.0422386
 -0.220943  -0.012761 -0.0674885
 -0.228646  -0.022414 -0.0508458
 -0.238597 -0.0242802 -0.0405172
 -0.221651 0.00808579 -0.0489667
  -0.22196   0.021237 -0.0367172
  -0.22324  0.0106813 -0.0365006
 -0.225623  0.0032784 -0.0378179
 -0.232168 -0.0115611 -0.0263859
  -0.229548 -0.00352812  -0.0292952
 -0.233623  -0.017728 -0.0249258
 -0.232538 -0.0237467 -0.0342013
 -0.242017 -0.0300869 -0.0150793
 -0.234739 -0.0302525  -0.015874
 -0.233619  -0.026587 -0.0202794
  -0.241466  -0.0331192 -0.00183474
  -0.245325  -0.0325375 -0.00496601
   -0.256063   -0.0335615 -0.000893563
  -0.248216  -0.0320462 -0.00616879
 -0.240259 -0.0312971 -0.0107117
 -0.239926 -0.0346792 0.00885143
 -0.230816 -0.0339279 0.00363425
 -0.235527 -0.0332662  0.0011875
 -0.236153 -0.0271562 -0.0290667
 -0.232925 -0.0267717 -0.0316446
 -0.246984 -0.0286304 -0.0201198
 -0.238116 -0.0267536 -0.0299832
 -0.245163 -0.0269996 -0.0276103
 -0.253582 -0.0293755  -0.016713
  -0.24402 -0.0294955  -0.016909
  -0.250704  -0.0312962 -0.00991455
 -0.264134 -0.0341886   0.003744
  -0.260221  -0.0326891 -0.00371093
  -0.263988  -0.0320182 -0.00603935
 -0.273648 -0.0342247 0.00354351
 -0.267585 -0.0341136 0.00245165
  -0.279699  -0.0331051 0.000844766
   -0.29468  -0.0316543 -0.00178117
  -0.274792  -0.0320962 -0.00404081
  -0.287753  -0.0321246 -0.00139966
 -0.283655 -0.0343774 0.00517892
 -0.299514 -0.0331001 0.00568269
 -0.290757 -0.0337789  0.0054479
  -0.271854  -0.0329649 -0.00188144
   -0.26132  -0.0332101 -0.00185493
  -0.267275  -0.0337544 0.000976022
  -0.29112 -0.0332738 0.00297473
 -0.306392 -0.0328076 0.00761189
 -0.300698 -0.0326517 0.00392513
  -0.282692  -0.0326033 -0.00112924
  -0.256386  -0.0318513 -0.00697179
  -0.266343  -0.0318828 -0.00676425
  -0.290176   -0.031328 -0.00492632
 -0.278011 -0.0303533 -0.0108717
 -0.271859 -0.0303841 -0.0116615
  -0.285944  -0.0302237 -0.00950335
  -0.295465  -0.0313387 -0.00290207
   -0.304096   -0.0313184 -0.000584482
 -0.303723 -0.0285635 -0.0107032
 -0.299285 -0.0290293 -0.0106577
 -0.259208 -0.0286034 -0.0193157
 -0.275044 -0.0282055 -0.0191528
 -0.281178 -0.0290113 -0.0150658
 -0.293832  -0.028557 -0.0138255
 -0.307585 -0.0263192 -0.0167594
 -0.288877 -0.0273337  -0.019307
 -0.279072 -0.0269409 -0.0230194
 -0.257201 -0.0264184 -0.0283672
 -0.263157 -0.0263341 -0.0273247
 -0.249568 -0.0263804 -0.0300376
 -0.266769 -0.0242934 -0.0339392
 -0.273632 -0.0250889 -0.0294704
 -0.277532 -0.0222683  -0.026147
  -0.29968 -0.0260821 -0.0200271
 -0.282108 -0.0256619 -0.0272053
 -0.293974 -0.0252019 -0.0255255
  -0.229608 -0.00554262   -0.130359
 -0.268159 -0.0157336 -0.0702297
 -0.251395 -0.0141465 -0.0841266
 -0.261981 -0.0157383 -0.0729861
 -0.217008  -0.013352 -0.0981544
 -0.237836 -0.0167336 -0.0758234
  -0.1758 0.0178746 -0.241687
-0.188615 0.0298226  -0.18529
 -0.195827 0.00056769  -0.173106
 -0.217511  0.0021168 -0.0724011
 -0.225373 -0.0180066  -0.073172
-0.214328 0.0156859 -0.077304
-0.207235 0.0303466 -0.107969
  -0.215019 -0.00845068  -0.0902796
-0.197753 0.0116041 -0.149463
 -0.274701 -0.0158635 -0.0669937
 -0.208038 0.00428189   -0.18186
-0.194957 0.0149625 -0.231151
-0.202113  0.015511 -0.228609
 -0.239507 0.00984375   -0.18603
 -0.268783 -0.0107493 -0.0900646
  -0.272333 -0.00667903   -0.104014
   -0.27865 -0.00353836   -0.113862
  -0.295573 -0.00927745   -0.083769
  -0.273456 -0.00589811   -0.106544
 -0.253312 0.00421019  -0.155981
 -0.280015 -0.0137607 -0.0736822
 -0.291098 -0.0148853 -0.0642997
 -0.297543 -0.0162298 -0.0566487
  -0.29395 -0.0123661 -0.0721355
 -0.285514 -0.0102877 -0.0848275
 -0.293477 -0.0228418 -0.0335468
 -0.296531 -0.0264545 -0.0196343
 -0.292148 -0.0266069 -0.0201929
 -0.288544 -0.0168664 -0.0580383
 -0.291546  -0.020339 -0.0438984
 -0.283779 -0.0202021 -0.0462447
 -0.287393 -0.0241804 -0.0310604
 -0.291327 -0.0238956 -0.0306994
 -0.290648 -0.0170136 -0.0565921
 -0.292737 -0.0199337 -0.0448586
 -0.287805 -0.0197262 -0.0470411
 -0.276035 -0.0196936 -0.0506904
 -0.280324 -0.0227922 -0.0374154
 -0.283223 -0.0256993 -0.0267941
 -0.271856 -0.0222353 -0.0412645
 -0.274695 -0.0217348 -0.0430623
 -0.260998 -0.0250205 -0.0323318
 -0.266614 -0.0243173 -0.0338794
 -0.267617 -0.0279259 -0.0201719
  -0.28371 -0.0186641 -0.0533117
 -0.280216 -0.0251209 -0.0291752
 -0.275001 -0.0251649 -0.0289186
 -0.273621 -0.0205757 -0.0481591
 -0.266096 -0.0195369  -0.054878
 -0.257438 -0.0180057 -0.0639618
   -0.2633 -0.0289748  -0.017263
 -0.256844 -0.0285123 -0.0196029
   -0.2618 -0.0209317 -0.0489061
 -0.247362 -0.0207722 -0.0541277
 -0.233743  -0.018623 -0.0681709
 -0.269695 -0.0223815 -0.0411479
 -0.276361 -0.0239987 -0.0341666
  -0.273608  -0.0306923 -0.00992196
  -0.279948  -0.0310263 -0.00691382
 -0.290869 -0.0294332 -0.0102694
 -0.278001 -0.0196315 -0.0504905
 -0.286246 -0.0222568 -0.0383079
 -0.282364  -0.022403 -0.0383519
 -0.303299 -0.0243462 -0.0249734
 -0.297558 -0.0225549 -0.0327378
 -0.302022 -0.0217275  -0.033866
  -0.295078  -0.0296217 -0.00839064
  -0.294394  -0.0342552 -0.00564786
  -0.301725  -0.0302235 -0.00452075
  -0.26931 -0.0189851 -0.0562381
 -0.273401 -0.0176462  -0.059951
  -0.243405 -0.00980055   -0.105277
 -0.267535 -0.0157287 -0.0705057
 -0.265244 -0.0169901 -0.0659423
 -0.247262 -0.0152169  -0.080322
 -0.259343 -0.0165351 -0.0707293
 -0.266503 -0.0195551 -0.0546908
 -0.252323 -0.0192459 -0.0591145
 -0.243599 -0.0162311 -0.0771943
 -0.211396 -0.0135969  -0.101483
 -0.218183 -0.0117589  -0.105279
  -0.198602 -0.00766761   -0.139521
  -0.217147 -0.00632894   -0.131401
 -0.230441 -0.0131268 -0.0940287
 -0.274032 -0.0146815 -0.0717662
 -0.263548 -0.0123997 -0.0846712
  -0.216276 -0.00287953   -0.147029
 -0.253721 -0.0115611 -0.0931201
 -0.212838 0.00454418  -0.179966
  -0.226728 -0.00793289   -0.162915
-0.269438 -0.019197 -0.098987
 -0.265213 -0.0016765  -0.126819
 -0.285546 -0.0132371 -0.0728035
  -0.279109 -0.00899136  -0.0917159
 -0.282659 -0.0155232 -0.0651817
-0.231404  0.015296 -0.211297
-0.213267 0.0112348 -0.205067
 -0.210985 -0.0188399  -0.245521
 -0.209313 0.00267128  -0.264375
-0.212023 0.0189584 -0.236619
  -0.197628 -0.00412944   -0.244024
 -0.207487 -0.0145931  -0.205574
 -0.217658 -0.0852768  -0.188074
 -0.203946 -0.0428747  -0.214008
 -0.210448 -0.0408479  -0.223831
 -0.223464 -0.0431085   -0.23688
 -0.221644 -0.0562229  -0.221737
 -0.217671 -0.0698788   -0.20348
 -0.209612 -0.0700403  -0.194199
 -0.185684 0.00463256   -0.23825
 -0.200836 -0.0573536   -0.19658
 -0.209288 -0.0839151  -0.180319
 -0.208105 -0.0881263  -0.174978
 -0.203534 -0.0789629  -0.178985
 -0.200155 -0.0638132  -0.189821
 -0.191412 -0.0472722  -0.196088
  -0.18936 -0.0259768  -0.213873
 -0.188108 -0.0334284  -0.205397
 -0.200311 -0.0775292  -0.123117
-0.190374 -0.044276 -0.144386
 -0.219471 -0.0850712 -0.0728407
 -0.226164 -0.0765032 -0.0595163
 -0.185407 -0.0639265  -0.162685
 -0.191773 -0.0649505  -0.180376
 -0.181451 -0.0526579  -0.181153
 -0.172102 -0.0146216  -0.192532
 -0.188999 -0.0163844  -0.144831
   -0.184879 -0.000837915    -0.182109
 -0.180788 0.00766556  -0.212454
 -0.176623 -0.0100316  -0.214834
 -0.181576 -0.0353206  -0.197112
  -0.170275 0.000153662   -0.217326
  -0.22734 -0.0184859 -0.0702232
 -0.218764 -0.0266388 -0.0607025
 -0.214423 -0.0188597  -0.081254
 -0.224015 -0.0197334 -0.0642788
 -0.238493 -0.0226029 -0.0476561
 -0.230228 -0.0226265 -0.0493909
 -0.236931 -0.0252552 -0.0357824
 -0.239058 -0.0206614 -0.0564435
  -0.23073 -0.0175473  -0.073796
 -0.244483 -0.0200893 -0.0578076
 -0.261903  -0.020138 -0.0523733
  -0.25063 -0.0227276 -0.0443024
  -0.25718 -0.0259128 -0.0302314
 -0.257546 -0.0223884 -0.0436248
 -0.264326 -0.0219268  -0.043496
  -0.25147 -0.0258644 -0.0317084
 -0.246598 -0.0266469 -0.0288194
 -0.249229  -0.028078 -0.0216813
 -0.240696 -0.0273897 -0.0266087
 -0.242136 -0.0246861 -0.0378631
 -0.246282 -0.0236111 -0.0425781
 -0.217738 -0.0418435  -0.065639
 -0.229963 -0.0346979 -0.0352683
-0.231526 -0.026367 -0.033986
 -0.223874 -0.0252593  -0.048243
 -0.222968 -0.0354978 -0.0516527
 -0.217837 -0.0675095  -0.074237
 -0.215536  -0.076704 -0.0724489
 -0.215326 -0.0794257  -0.074144
 -0.223174 -0.0507545  -0.060406
 -0.216156 -0.0539485 -0.0727985
 -0.218452  -0.057551 -0.0614272
 -0.216221 -0.0657657 -0.0678043
 -0.219503 -0.0646729 -0.0556326
 -0.225762 -0.0292498 -0.0431062
 -0.232768 -0.0408579 -0.0267194
 -0.232431 -0.0281488 -0.0272826
 -0.230926 -0.0305935  -0.032063
 -0.228399 -0.0291101 -0.0254119
  -0.23674 -0.0420887  -0.015133
  -0.227173  -0.0319972 -0.00920318
 -0.231754 -0.0301438 -0.0160451
 -0.238202 -0.0311584 -0.0105394
  -0.233563  -0.0317613 -0.00614517
  -0.228621   -0.032616 -0.00395302
 -0.245077 -0.0347404 0.00628772
   -0.24094  -0.0334189 0.000316466
  -0.241316  -0.0369839 -0.00838623
 -0.236602 -0.0297342 -0.0184087
 -0.239473 -0.0307793 -0.0130384
 -0.237428 -0.0388463 -0.0148013
 -0.260453 -0.0360614  0.0112281
 -0.254862 -0.0347235 0.00514133
 -0.254843 -0.0309279 -0.0102228
 -0.278321 -0.0352638 0.00673733
 -0.291498 -0.0346898  0.0113179
  -0.30067 -0.0334791 0.00851835
 -0.296693 -0.0337792 0.00706433
  -0.29692 -0.0341893  0.0114518
 -0.286183 -0.0350937  0.0101431
  -0.27925 -0.0359101  0.0124754
 -0.271978 -0.0353318 0.00693834
 -0.285501 -0.0399831 0.00676782
 -0.244893 -0.0289166 -0.0188748
  -0.246835  -0.0313242 -0.00888496
 -0.239421 -0.0291006  -0.019454
 -0.268103 -0.0398185 0.00891118
 -0.280177 -0.0415384 0.00688176
 -0.321387 -0.0337581  0.0228534
 -0.329994 -0.0331832  0.0233851
 -0.341384 -0.0315716   0.021469
 -0.339222 -0.0329649   0.026555
 -0.333509 -0.0324358  0.0216352
 -0.314412 -0.0332154  0.0162295
 -0.336957 -0.0311465  0.0173128
 -0.339558 -0.0299815  0.0128563
 -0.316216 -0.0343001  0.0232305
 -0.310172 -0.0339281  0.0177461
 -0.306801 -0.0343701  0.0184735
 -0.308378 -0.0329208  0.0103205
 -0.304467 -0.0331435 0.00918633
 -0.304557 -0.0326565 0.00613234
 -0.307222 -0.0327043 0.00731449
 -0.310899 -0.0323274 0.00933736
  -0.32207 -0.0311148 0.00912688
 -0.315895  -0.031322 0.00586801
 -0.334554 -0.0298222 0.00902707
 -0.327509 -0.0315263  0.0144311
 -0.318167 -0.0322464  0.0132003
 -0.346661 -0.0328759  0.0308132
 -0.34971 -0.030808 0.0235534
 -0.357605 -0.0284888  0.0177745
-0.347088 -0.029267 0.0148267
 -0.344648 -0.0308422  0.0204565
 -0.385037 -0.0262648  0.0283626
 -0.390405 -0.0290208  0.0456784
 -0.380161 -0.0284982  0.0348865
 -0.382246 -0.0356759  0.0666517
 -0.373852 -0.0348878  0.0586514
 -0.354045 -0.0332062  0.0371454
-0.372497 -0.030201 0.0360515
 -0.368402 -0.0327315  0.0381066
 -0.374569 -0.0322742  0.0478111
 -0.386912 -0.0317577  0.0546319
-0.377013 -0.029773  0.037842
-0.377971 -0.025555 0.0184906
 -0.373291 -0.0366525  0.0179121
 -0.371448 -0.0271889  0.0198684
-0.364411 -0.026986 0.0145802
  -0.353186  -0.0244555 -0.00258013
  -0.349477  -0.0257716 3.90623e-05
 -0.357948 -0.0259591 0.00678833
 -0.366072 -0.0248084 0.00733125
 -0.374864 -0.0234793 0.00793988
 -0.360495 -0.0243886 0.00213395
 -0.381838 -0.0210324 0.00374575
  -0.37771 -0.0217688  0.0040408
  -0.375559  -0.0191645 -0.00751791
  -0.37851 -0.0176573 -0.0112012
 -0.370459 -0.0183201 -0.0142647
 -0.350743  -0.020905 -0.0178473
  -0.358683  -0.0218123 -0.00975916
    -0.348 -0.0231118 -0.0110939
 -0.369156  -0.022924 0.00232147
   -0.363799   -0.0230541 -0.000869818
  -0.355831  -0.0228943 -0.00710817
 -0.338742 -0.0224581 -0.0187416
 -0.343619 -0.0238656 -0.0108599
 -0.341673 -0.0218834 -0.0194943
 -0.337156  -0.021378 -0.0231994
 -0.345305 -0.0209538 -0.0207565
 -0.308785 -0.0238529 -0.0240252
 -0.330889 -0.0257569 -0.0104751
  -0.336481  -0.0256402 -0.00772342
  -0.324074  -0.0266704 -0.00958434
 -0.317539 -0.0257952 -0.0147562
 -0.301948 -0.0223992 -0.0312354
  -0.29857 -0.0232585 -0.0294942
  -0.30713 -0.0274027 -0.0128072
  -0.314409  -0.0274768 -0.00967146
 -0.344886  -0.026436 0.00106607
  -0.319162  -0.0276107 -0.00744139
  -0.312086  -0.0291892 -0.00470701
 -0.307725 -0.0312726 0.00165765
 -0.325123 -0.0298413 0.00392092
 -0.350246 -0.0277157 0.00953041
 -0.341897 -0.0279316 0.00455299
 -0.335746 -0.0282421 0.00238137
  -0.301829  -0.0291202 -0.00906792
-0.232005 0.0256775 -0.254486
 -0.296117 -0.0202506  -0.042225
 -0.297412 -0.0188844 -0.0466184
 -0.292763 -0.0132383 -0.0692005
 -0.301173 -0.0110623 -0.0748796
 -0.286335 -0.0078502 -0.0931104
 -0.290902 -0.0123376  -0.110277
 -0.304571 -0.0108203 -0.0747301
  -0.307653 -0.00666828  -0.0880847
 -0.305531 -0.0090626 -0.0807851
  -0.300244 -0.00270245   -0.106808
 -0.317689 -0.0225963 -0.0997986
 -0.296267 0.00542392  -0.145427
 -0.328419 -0.0517046 -0.0900195
 -0.320673 -0.0516141  -0.119074
-0.243898 0.0281899 -0.258553
 -0.321828 -0.0361181  -0.102057
-0.273215 0.0182949 -0.202748
 -0.327521 -0.0202971 -0.0744305
  -0.321839 -0.00701934  -0.0797979
 -0.311717 -0.0133018 -0.0614906
 -0.313018 -0.0115285 -0.0671934
 -0.317348 -0.0088592 -0.0740769
  -0.33373 -0.0134318 -0.0560804
 -0.325112  -0.010705 -0.0631865
 -0.321008  -0.013013 -0.0571856
 -0.330317 -0.0146688 -0.0681737
  -0.322496 -0.00748162  -0.0809789
-0.312476 0.0021779 -0.115855
  -0.308112 -0.00725692   -0.117711
   -0.3376 0.00361178 -0.0961496
 -0.340842 0.00734164  -0.102468
   -0.33925 -0.00160186  -0.0806369
  -0.328656 -0.00516601  -0.0796652
   -0.326082 -0.000695012   -0.0943995
 -0.334705 -0.0167488 -0.0551137
-0.343805 -0.014112 -0.041075
 -0.340858 -0.0112008  -0.050806
 -0.331929 -0.0168915 -0.0387844
  -0.32846 -0.0137633 -0.0502561
 -0.335187 -0.0152038 -0.0427016
 -0.337711  -0.018275 -0.0427863
 -0.340004  -0.015127 -0.0405103
 -0.351561 -0.0166161 -0.0304321
 -0.356581 -0.0189722 -0.0210549
 -0.353343 -0.0195991 -0.0207663
  -0.32962 -0.0194809 -0.0315855
 -0.337075 -0.0196358 -0.0282042
 -0.346487 -0.0173189 -0.0307774
 -0.325472 -0.0206264 -0.0295525
 -0.320811 -0.0166307 -0.0452493
 -0.325874 -0.0163713 -0.0435071
 -0.319131 -0.0179336 -0.0415512
 -0.321469  -0.020267 -0.0322044
 -0.318062 -0.0222732 -0.0258653
 -0.305185 -0.0204227 -0.0367216
 -0.305224 -0.0146936 -0.0587497
 -0.307467 -0.0134096 -0.0633374
 -0.312066 -0.0162236  -0.050371
 -0.315439 -0.0194961 -0.0366754
 -0.312213 -0.0225005  -0.027506
 -0.310545 -0.0171882 -0.0475256
 -0.303791 -0.0158406 -0.0547562
  -0.304605 -0.00971111  -0.0789897
 -0.300297 -0.0112749  -0.074412
 -0.299731 -0.0145368 -0.0617719
 -0.335732 -0.0133516 -0.0488868
  -0.32913 -0.0112109 -0.0595161
 -0.316021 -0.0141959 -0.0566671
 -0.315178 -0.0163422 -0.0489139
 -0.331634 -0.0154941 -0.0438047
 -0.341308 -0.0140506 -0.0430281
 -0.351249 -0.0125766 -0.0409262
 -0.363421 -0.0090472  -0.043134
  -0.360254 -0.00975725  -0.0432331
 -0.358528 -0.0153664 -0.0299726
  -0.37506 -0.0149708 -0.0215585
 -0.368819 -0.0148426 -0.0252152
  -0.352391 -0.00787245  -0.0527298
  -0.340693 -0.00960825  -0.0559646
  -0.347231 -0.00998522  -0.0504307
 -0.367191  -0.011842 -0.0338822
 -0.370789 -0.0058615 -0.0491974
  -0.366199 -0.00950578  -0.0403411
 -0.371452 -0.0115435 -0.0328472
 -0.364751  0.0010658 -0.0735334
  -0.368805 -0.00166001  -0.0626085
  -0.373032 -0.00558708  -0.0687698
  -0.362733 -0.00480701  -0.0537077
 -0.355149 0.00266481 -0.0798477
 -0.352111 0.00570031 -0.0921344
-0.345883 0.0033751 -0.087372
  -0.343615 -0.00605547  -0.0643946
 -0.349263  -0.012209 -0.0427553
 -0.347343 -0.0082014 -0.0550941
 -0.354582  -0.015483 -0.0316685
 -0.363124 -0.0145266 -0.0293705
 -0.362051 -0.0105139  -0.040105
  -0.35355 -0.0101858 -0.0456849
  -0.354838 -0.00762089  -0.0514263
  -0.348979 -0.00292602  -0.0684933
  -0.349124 0.000444742  -0.0771146
   -0.331334 -0.000884607   -0.0894526
   -0.320931 -0.000132736    -0.101068
 -0.304843 -0.0034393   -0.10285
  -0.340098 -0.00176381  -0.0794406
   -0.346932 -0.000540961   -0.0767775
 -0.352586 0.00453306 -0.0765551
 -0.313592 0.00175964  -0.113534
-0.288062 0.0081849 -0.156275
 -0.327901 0.00725966  -0.114704
 -0.346266 0.00890739 -0.0923099
 -0.352706  0.0128923 -0.0639293
  -0.358983 -0.00114434  -0.0663744
  -0.367027 -0.00167783  -0.0628254
   -0.374126 -0.000974838   -0.0650938
 -0.365206  0.0010583 -0.0735108
  -0.357587 -0.00206161  -0.0638372
 -0.352616  0.0223643 -0.0536864
 -0.349371  0.0174462 -0.0760739
  -0.360048 -0.00484917  -0.0547083
  -0.375398 -0.00588366  -0.0490565
  -0.380395 -0.00907644  -0.0376298
  -0.373573 -0.00866747  -0.0411548
  -0.368952 -0.00994468  -0.0386517
  -0.357639 -0.00563124  -0.0546849
 -0.365296 -0.0081874 -0.0444139
  -0.366247 -0.00649949  -0.0487917
  -0.35317 -0.0030659 -0.0648397
 -0.316299 -0.0060934 -0.0861523
  -0.333817 -0.00568341  -0.0738704
  -0.325755 -0.00697055   -0.077231
 -0.347221 -0.0060768 -0.0617017
  -0.334115 -0.00905333  -0.0627822
  -0.292074 -0.00475762   -0.101192
  -0.306489 -0.00610465  -0.0909334
 -0.281438 0.00579765  -0.148759
  -0.289533 -0.00158421    -0.11572
 -0.302847 -0.0185337 -0.0447602
 -0.306699 -0.0191631 -0.0410056
  -0.32866  -0.018045 -0.0370229
 -0.336828 -0.0162262 -0.0391058
 -0.346446 -0.0144289 -0.0387827
  -0.34152  -0.017309 -0.0338052
 -0.345918 -0.0176567 -0.0301248
 -0.333482 -0.0190479  -0.032198
 -0.304964 -0.0215815 -0.0330566
  -0.31182 -0.0198819 -0.0369415
 -0.317206 -0.0193591 -0.0367495
 -0.329022 -0.0214229 -0.0263359
 -0.342246 -0.0212235 -0.0216863
-0.351835 -0.026644   0.00501
  -0.349807  -0.0254775 -0.00105435
 -0.337945 -0.0228252 -0.0178293
 -0.334352 -0.0240621 -0.0152203
  -0.341245  -0.0260918 -0.00425511
 -0.348014   -0.02784 0.00827638
 -0.313071 -0.0225397 -0.0271516
 -0.310055  -0.023999 -0.0231266
 -0.337793 -0.0280871 0.00276649
 -0.343017 -0.0281846 0.00621705
 -0.338673 -0.0300643   0.012671
 -0.333823 -0.0293336 0.00539853
 -0.333878 -0.0306825  0.0132638
 -0.310056 -0.0317022 0.00403951
 -0.319119 -0.0304558 0.00259152
 -0.320901 -0.0314992  0.0102538
  -0.32785 -0.0297347 0.00442492
 -0.323557 -0.0299217  0.0032846
   -0.31372  -0.0298118 -0.00213642
  -0.308688  -0.0299416 -0.00382071
  -0.317506  -0.0282328 -0.00612086
 -0.311579 -0.0272142 -0.0124805
 -0.307273  -0.024301 -0.0232503
 -0.314776 -0.0254341 -0.0178007
  -0.320969  -0.0275518 -0.00720955
 -0.335646 -0.0260104 -0.0068766
 -0.323761 -0.0255584 -0.0141494
 -0.329107 -0.0246408 -0.0155075
  -0.330372  -0.0263676 -0.00869252
  -0.325915  -0.0276568 -0.00583872
  -0.332268   -0.027895 -0.00223782
  -0.358206  -0.0219059 -0.00974861
 -0.353843 -0.0219405 -0.0129092
   -0.3511  -0.016057 -0.0322704
 -0.351243 -0.0192348  -0.023425
 -0.356426  -0.018825 -0.0216193
 -0.370935 -0.0183731 -0.0137854
 -0.366409 -0.0184664 -0.0166735
 -0.360206 -0.0151397 -0.0297277
 -0.361849  -0.018487 -0.0194314
  -0.36208 -0.0204606 -0.0129283
  -0.367014  -0.0204328 -0.00896235
  -0.359439  -0.0237159 -0.00211125
 -0.353993 -0.0235008 -0.0061672
  -0.35698 -0.0272506  0.0114868
   -0.3616 -0.0275646  0.0152157
 -0.364457  -0.024323 0.00413936
 -0.376011 -0.0250998  0.0144544
 -0.378041 -0.0267728  0.0233657
 -0.372505 -0.0264336  0.0172666
  -0.363546  -0.0223734 -0.00416658
 -0.370109  -0.024321 0.00763021
  -0.368909  -0.0220369 -0.00175945
  -0.379082  -0.0200724 -0.00241817
 -0.376317 -0.0211117 0.00030962
 -0.380987 -0.0254445  0.0205357
 -0.378958 -0.0233529 0.00964461
 -0.385278 -0.0243238  0.0186882
-0.396634 -0.024625 0.0286028
 -0.391864 -0.0229978  0.0169058
 -0.390733 -0.0242535  0.0224318
 -0.386146 -0.0218437 0.00819747
 -0.388396 -0.0213554 0.00748823
 -0.390959 -0.0196379  0.0021567
  -0.385697  -0.0184284 -0.00518395
  -0.38073 -0.0170884 -0.0123807
 -0.375285 -0.0107143 -0.0136172
  -0.375498  -0.0194464 -0.00659158
 -0.370272 -0.0157431 -0.0221979
 -0.375311 -0.0171413 -0.0151176
 -0.375074 -0.0146207 -0.0226406
 -0.368351 -0.0123553 -0.0320359
 -0.364806 -0.0120327 -0.0349308
 -0.378461 -0.0143697 -0.0225213
 -0.372104 -0.0121725 -0.0309164
 -0.383011 -0.0124541 -0.0263144
  -0.385681 -0.00291739  -0.0574558
  -0.381625 -0.00405691  -0.0538926
  -0.395233 -0.00608754  -0.0447072
 -0.404817 -0.0050615 -0.0463759
  -0.399003 -0.00470333  -0.0494055
 -0.404749 -0.0067486  -0.038696
  -0.402269 -0.00728919  -0.0374113
    -0.3961 -0.00783433  -0.0374613
  -0.386402 -0.00733471  -0.0417838
 -0.380717 -0.0067383 -0.0450925
  -0.388666 -0.00588802  -0.0466794
  -0.42011 -0.0238381  0.0345781
 -0.422506 -0.0212427  0.0249945
 -0.436278 -0.0268376  0.0507638
 -0.426669 -0.0246952  0.0395667
 -0.417659 -0.0265846  0.0471637
 -0.410888 -0.0251522  0.0388771
  -0.41357 -0.0231717  0.0287909
 -0.415673 -0.0248191  0.0377633
 -0.407648 -0.0100141 -0.0257769
 -0.416707 -0.0197992  0.0166899
  -0.391543 -0.00820948  -0.0373422
  -0.411481  -0.0165879 0.000797999
-0.410309 -0.019943 0.0128971
 -0.403795 -0.0203844  0.0119172
 -0.407472 -0.0227132  0.0242107
 -0.398918 -0.0239798  0.0267953
 -0.402237 -0.0229649  0.0220584
 -0.401153 -0.0214741  0.0142269
 -0.405433 -0.0174125 0.00091408
 -0.397344 -0.0192412 0.00414688
  -0.389627  -0.0183339 -0.00391437
  -0.393883  -0.0170584 -0.00667248
 -0.387446 -0.0160184 -0.0127095
 -0.382151 -0.0082902 -0.0395974
 -0.388993 -0.0101577 -0.0313331
 -0.393587 -0.0146167 -0.0150669
 -0.411601 -0.0133929  -0.011559
 -0.397803 -0.0105447 -0.0271982
  -0.402918 -0.00977534  -0.0280607
 -0.390796 -0.0110395 -0.0273286
 -0.396542 -0.0130608 -0.0188497
 -0.405911 -0.0131276 -0.0150546
  -0.41319 -0.0102324 -0.0234418
  -0.417065 -0.00971537  -0.0241285
  -0.413439 -0.00453513  -0.0458317
  -0.415247 -0.00694188  -0.0352306
  -0.410518 -0.00717333  -0.0352723
  -0.434965 -0.00986239  -0.0188734
  -0.425216 -0.00469336  -0.0411531
  -0.418995 -0.00428141  -0.0457252
  -0.420171 -0.00638248  -0.0361695
  -0.426849 -0.00633666  -0.0339493
  -0.421987 -0.00878827  -0.0267598
 -0.424308  -0.011452 -0.0153461
 -0.419312  -0.011789 -0.0156051
 -0.415488 -0.0123422   -0.01446
  -0.419091  -0.0146782 -0.00380222
  -0.422904  -0.0141361 -0.00456185
 -0.432853 -0.0184414  0.0160429
 -0.429009 -0.0190651  0.0179307
 -0.426854 -0.0204366  0.0230182
  -0.42975 -0.0158277 0.00417366
  -0.432037  -0.0136876 -0.00425839
 -0.430092 -0.0114375 -0.0142496
 -0.440858 -0.0157013 0.00630074
-0.436698  -0.01663 0.0097325
 -0.431863 -0.0231675  0.0355945
 -0.435741 -0.0224406  0.0342255
 -0.438802 -0.0216002  0.0316518
-0.445283 -0.018243  0.019285
 -0.442237 -0.0197961  0.0251068
 -0.441674 -0.0262973  0.0505984
 -0.446407 -0.0146437  0.0035782
 -0.451023 -0.0173071  0.0166589
  -0.449076  -0.0124247 -0.00564434
  -0.452317 -0.00804506   -0.018671
-0.449164  -0.01027 -0.013028
  -0.444865 -0.00717904  -0.0241628
  -0.437784  -0.0123373 -0.00845347
  -0.438951 -0.00701202  -0.0268888
 -0.442066 -0.0101305 -0.0156673
  -0.430239 -0.00211853  -0.0500546
 -0.423998 -0.0031897   -0.04865
  -0.432624 -0.00658186  -0.0306509
  -0.440702 -0.00432888  -0.0353867
  -0.435667 -0.00180136  -0.0479714
  -0.447723 -0.00459614  -0.0319024
  -0.428588 -0.00213039  -0.0507817
   -0.444091 -0.000858997   -0.0475037
  -0.456174 -0.00177643  -0.0385133
  -0.451174 -0.00234317  -0.0382792
  -0.430604 -0.00449693  -0.0391924
  -0.422554 -0.00558512  -0.0381583
  -0.412622 -0.00384455    -0.04896
  -0.417026 -0.00357072  -0.0491255
  -0.420281 -0.00242819  -0.0527783
  -0.417448 -0.00185957  -0.0571177
  -0.423459 -0.00146789  -0.0564441
  -0.411737 -0.00152538  -0.0609052
  -0.408271 -0.00324389  -0.0537141
  -0.401469 -0.00292827  -0.0570163
  -0.395495 -0.00173015  -0.0623908
  -0.378353 -0.00090589  -0.0653779
  -0.398949 5.91451e-05   -0.069463
   -0.388978 -0.000210312   -0.0686449
  -0.399145 -0.00323991  -0.0557196
  -0.402804 -0.00479409  -0.0479293
  -0.407566 -0.00408593  -0.0492837
  -0.405961 -0.00150902  -0.0631311
  -0.432921 -0.00056438   -0.054735
  -0.414688 -0.00155089  -0.0591904
  -0.403108 -0.00273814   -0.057443
  -0.407599 -0.00235174  -0.0578273
  -0.411555 -0.00219758  -0.0575222
   -0.418884 -0.000325558   -0.0629617
 -0.414121 0.00112987 -0.0709335
   -0.409602 -0.000277512   -0.0663219
  -0.427909 0.000540774  -0.0631298
 -0.431247 0.00146974 -0.0655449
 -0.437027 0.00059164 -0.0585071
 -0.436149 0.00267893 -0.0694134
 -0.441517 0.00308508 -0.0685728
 -0.462164 0.00442719 -0.0629638
 -0.457006 0.00369692 -0.0624598
  -0.45153 0.00222166 -0.0582494
 -0.445492 0.00297287 -0.0655653
   -0.448161 -7.40869e-05   -0.0495218
   -0.45435 9.14098e-05  -0.0474319
  -0.467415 0.000229387  -0.0425218
 -0.472283 0.00295388 -0.0527567
 -0.465322 0.00235112 -0.0521434
 -0.459379 0.00130002 -0.0502561
   -0.39837 4.06823e-06  -0.0692469
  -0.403295 0.000738946  -0.0715881
   -0.476287 -0.000371933   -0.0378759
  -0.462297 -0.00134211  -0.0380929
  -0.446368 -0.00343446  -0.0362019
  -0.46054 -0.0045261 -0.0275787
  -0.466505 -0.00454754  -0.0260098
   -0.485437 -0.000749188   -0.0347175
 -0.501431 0.00342025 -0.0492214
 -0.489109 0.00339246 -0.0512699
 -0.482709 0.00196148  -0.045874
  -0.394203 0.000355649  -0.0704152
  -0.390051 -0.00111942  -0.0641176
  -0.384962 -0.00139891  -0.0624768
  -0.375731 0.000723921  -0.0720387
 -0.381641 0.00186168 -0.0772921
  -0.374459 -0.00196699  -0.0609202
  -0.375755 -0.00442824  -0.0529385
  -0.378179 -0.00200756  -0.0603495
  -0.395046 -0.00239909  -0.0591961
  -0.390169 -0.00443966   -0.051521
  -0.384832 -0.00522746  -0.0488724
  -0.394594 -0.00715041   -0.040195
  -0.399575 -0.00557697   -0.044961
 -0.394434 -0.0048492 -0.0493207
  -0.390108 -0.00744602  -0.0401589
   -0.38015 -0.00708583  -0.0439839
 -0.386556 -0.0100616 -0.0321692
  -0.381104 -0.00980744  -0.0348682
  -0.385473 -0.00776532  -0.0403993
   -0.39981 -0.00783384  -0.0359378
  -0.394957 -0.00992853  -0.0298482
 -0.401161  -0.010325 -0.0264466
  -0.410533 -0.00878237  -0.0287534
  -0.419441 -0.00822231  -0.0292085
  -0.428503 -0.00710506  -0.0301183
  -0.433133 -0.00692761  -0.0292062
  -0.407499 -0.00627911  -0.0393238
  -0.404134 -0.00739924  -0.0361929
  -0.437376 -0.00492726  -0.0342578
  -0.454523 -0.00528196  -0.0267917
  -0.441721 -0.00428324  -0.0350985
    -0.4493 -0.00717817  -0.0221697
 -0.445528 -0.0076042 -0.0225101
  -0.439739 -0.00766903  -0.0242284
  -0.487893  -0.0160374 -0.00071556
 -0.477245   -0.01275 0.00248068
  -0.471804  -0.0113416 -0.00414552
  -0.473639 -0.00869318  -0.0114937
  -0.466842 -0.00816006   -0.014267
  -0.459499 -0.00904983  -0.0131495
   -0.44216  -0.0126749 -0.00562788
 -0.463962 -0.0126544  0.0001849
 -0.383315 -0.0130886 -0.0240526
 -0.416964 -0.0102782 -0.0218213
 -0.406747 -0.0108085 -0.0227386
  -0.425672 -0.00936173  -0.0231807
   -0.3774 -0.0114391 -0.0313996
 -0.433143 -0.0102265 -0.0180723
 -0.460512 -0.0153285  -0.010454
 -0.446935 -0.0104687  -0.012806
   -0.43622 -0.00990497  -0.0182473
  -0.493952 -0.00888454 -0.00964559
 -0.492547 -0.0120609 -0.0163692
   -0.48945  -0.0102844 -0.00315342
  -0.476972 -0.00722432  -0.0152646
  -0.481789 -0.00475899     -0.0218
 -0.367132 0.00334534 -0.0833441
  -0.488561 -0.00390807  -0.0231773
  -0.493777 -0.00100397  -0.0322112
  -0.50111 -0.0100974 -0.0263446
  -0.502135 0.000880094  -0.0379359
  -0.515342 0.000189513   -0.032757
 -0.535024 0.00262936 -0.0423703
  -0.510875 -0.00570576   -0.008722
-0.559858 -0.015029 0.0472975
  -0.543555 -0.00934001   0.0179617
  -0.537103 -0.00182644  -0.0193468
-0.519143 -0.011485 0.0156129
 -0.505529 -0.0142864  0.0178794
 -0.492956 -0.0136759 0.00924782
 -0.511551 -0.0212822  0.0447192
 -0.496174 -0.0257896   0.016613
 -0.474664 -0.0133344 0.00499892
 -0.492422 -0.0145104  0.0126063
-0.523797 -0.026243  0.065928
 -0.493426 -0.0174873  0.0256988
 -0.481043 -0.0153182  0.0149448
 -0.473943 -0.0639942 -0.0124798
0.176083 0.228155 0.337814
0.166387 0.209278 0.269954
0.203958 0.271152 0.394968
0.173252 0.225265 0.284785
0.183503 0.219121 0.292675
0.208179 0.244024 0.301934
0.299952  0.48026 0.775852
0.390286 0.205858 0.298148
0.369944 0.175853 0.271344
0.381041 0.222801 0.375818
0.381618  0.21038 0.360692
0.374082 0.205361 0.305383
0.390553 0.217689 0.306381
0.377895 0.223611 0.400398
0.364432 0.217515 0.353628
0.366017 0.259423 0.512195
0.281493 0.133111 0.245459
0.307444  0.22663 0.493673
0.312696 0.194011 0.392135
0.358198 0.219973 0.456358
0.342282 0.224632 0.471493
0.292293 0.131008 0.283869
 0.32344  0.11536 0.270202
0.305158 0.116568 0.255126
0.322897 0.189417 0.437358
0.363293 0.234811 0.547769
0.342749 0.133537 0.269093
0.367439 0.186896 0.341379
0.380057 0.182286 0.330824
0.365926 0.159894 0.314247
0.388047 0.163167 0.287258
 0.38284 0.138489 0.240586
0.407204 0.107066 0.211536
0.398697 0.113419 0.218893
0.389387 0.121116  0.21647
0.402733 0.103592 0.191316
0.378928 0.128642 0.226783
0.380858 0.144723  0.22793
0.403271 0.124499 0.221679
 0.39274 0.155521 0.254248
0.438522 0.270839 0.260122
0.511706 0.739625 0.544039
0.420264   0.1768 0.237546
0.404565 0.167613 0.241812
0.435826 0.207312 0.232516
0.405794 0.333398 0.353268
0.412683 0.344503 0.336318
0.435125  0.48563 0.476186
0.449378 0.487112 0.551856
0.485282 0.291002 0.305955
0.434933 0.436557 0.384693
0.430361 0.391819 0.327865
0.394447 0.255325 0.312398
0.426811 0.264729 0.288265
0.405556 0.324946 0.339622
0.426316 0.227211 0.257002
0.387725 0.191633 0.304715
0.391297 0.213698 0.296674
0.388936 0.210055 0.310756
0.390795 0.184949 0.280235
0.384977 0.122101 0.236845
0.391688 0.156837 0.264572
0.389483  0.16722 0.281484
0.287571 0.207066 0.510207
0.243658 0.162261 0.387635
0.296399 0.226906 0.515582
0.247401 0.150203  0.33116
0.279235 0.134774 0.289738
0.486436 0.804371  0.83389
 0.49086 0.902237  1.01654
0.398603 0.337964 0.401678
0.303487 0.108424 0.236808
0.275356 0.117199 0.274646
0.299141 0.134505 0.324697
0.386849 0.233477 0.344946
0.375336  0.27187 0.481014
0.381254 0.236019 0.388607
0.418561 0.751058  1.16493
 0.52671 0.387124 0.707185
0.446414 0.762167 0.981991
0.388946 0.308272 0.431017
0.463361 0.771047 0.898679
0.402706 0.420867 0.531773
0.385549 0.285266 0.420982
0.389149 0.390697 0.562766
 0.24668 0.121367 0.297741
 0.24559 0.138446  0.34986
0.239354 0.130106 0.349791
0.243314 0.131785 0.332591
0.274148 0.182675 0.472451
0.258552 0.106105 0.258105
0.382434   0.2046 0.349772
 0.21138 0.151926 0.413288
0.232839 0.249622 0.734184
0.198782 0.126417 0.316326
0.220137 0.143624 0.365917
0.221371 0.113926 0.257861
 0.24045  0.16165 0.413462
0.226228 0.150145 0.347031
0.216254 0.135116 0.301431
0.258084 0.267865 0.768083
0.246812 0.223585  0.61513
 0.20849 0.184207 0.500702
0.203613 0.167929 0.432669
0.173561 0.138772  0.35357
0.135202 0.140892 0.371596
0.193317 0.148389 0.376237
0.159131 0.125288 0.315115
0.153625 0.112438 0.263217
0.163825 0.119483 0.314868
0.147334 0.152602 0.420553
 0.15778 0.139246   0.3607
0.260352  0.35623  1.13041
0.162499 0.134122 0.401416
0.183127 0.178942 0.509827
0.153481 0.151416 0.419714
 0.12308 0.117788 0.285308
 0.150221 0.0579739   0.34756
 0.148761 0.0544663  0.331226
 0.181257 0.0813868   0.44875
 0.155517 0.0620365  0.345199
 0.135612 0.0732247    0.3029
 0.149548 0.0843917  0.359731
  0.15458 0.0764454  0.339811
 0.164465 0.0729114  0.343957
 0.148589 0.0449849  0.342042
  0.15521 0.0506267   0.32915
 0.145153 0.0278887  0.297335
0.156679 0.059947 0.437053
 0.149602 0.0528859  0.379855
    0.147499 -0.000630478     0.300513
 0.18549 0.101831 0.803124
0.268877 0.249573  1.26056
 0.18649 0.014046  0.29105
 0.194334 0.0189164  0.347843
 0.183767 0.0168948  0.272748
 0.194233 0.0342351  0.323228
 0.177928 0.0211821  0.264154
 0.190208 0.0382591  0.331615
 0.186278 0.0288868  0.264445
  0.19778 0.0823124  0.464528
 0.189579 0.0925716  0.488391
 0.191616 0.0541438  0.347036
 0.173917 0.0281406   0.27297
 0.177237 0.0508337   0.31794
 0.17024 0.039684 0.300766
0.164191 0.035614 0.275779
 0.182666 0.0208694  0.278397
 0.199535 0.0355665  0.307191
 0.201797 0.0376496  0.314578
 0.189799 0.0344945  0.289093
 0.208407 0.0189063  0.294161
 0.205135 0.0613331  0.428774
 0.208678 0.0222726  0.304943
0.266476 0.102908  0.85515
 0.278181 0.0484385  0.476853
 0.266889 0.0758349   0.67758
0.265224 0.108727  0.74006
    0.394035 -0.000499919      1.16909
 0.493964 0.0158878  0.237387
 0.471883 0.0622581  0.598131
 0.493591 0.0491855  0.300047
  0.452857 -0.0257696   0.979359
 0.305885 0.0215822  0.496578
 0.302408 0.0313326  0.529097
 0.466211 0.0140703  0.420926
 0.235104 0.0296502   0.30651
 0.242676 0.0356895   0.32753
0.210975 0.035662 0.330187
 0.201301 0.0413161  0.325098
 0.225014 0.0222709  0.261831
0.276511 0.035285 0.345416
0.361109 0.173701 0.953211
   0.433438 -0.00305814    0.540351
 0.308911 0.0257385  0.381346
      0.4763 -0.000614126     0.269978
 0.276809 0.0277516  0.309772
 0.306837 0.0522656  0.490332
 0.320977 0.0361128  0.451974
 0.370681 0.0959611   1.03426
 0.389111 0.0267941  0.986128
 0.502769 0.0594148  0.296648
0.359527  0.20646 0.894864
0.485333 0.133366 0.426731
  0.436881 -0.0133342   0.472776
   0.413161 -0.00228497    0.519968
  0.38564 0.0559252  0.500843
  0.32106 0.0166647  0.288693
 0.319265 0.0455336  0.477198
0.277587 0.028796 0.312377
0.280737 0.027247 0.326896
 0.268482 0.0361663  0.325067
0.303111 0.041319 0.410256
 0.280445 0.0380129  0.312004
0.260155 0.103183 0.648843
 0.250309 0.0384131  0.275085
 0.233654 0.0650945  0.424425
 0.206454 0.0936527  0.511746
 0.159966 0.0838129  0.318694
0.193475 0.058878 0.342532
 0.190663 0.0506715  0.309029
